# .PCD v0.7 - Point Cloud Data file format
VERSION 0.7
FIELDS x y z intensity
SIZE 4 4 4 4
TYPE F F F F
COUNT 1 1 1 1
WIDTH 1156
HEIGHT 1
VIEWPOINT 0 0 0 1 0 0 0
POINTS 1156
DATA ascii
0.59906644 -0.15041494 0.51867223 1.9279999
0.66143495 -0.16255605 0.56053811 1.784
0.68077803 -0.1659039 0.5720824 1.7479999
0.68363845 -0.1659039 0.5720824 1.7479999
0.68649888 -0.1659039 0.5720824 1.7479999
1.1136364 -0.26363635 0.90909088 1.1
3.2894735 -0.7631579 2.6315789 0.38
3.3026316 -0.7631579 2.6315789 0.38
0.84183675 -0.18494898 0.6377551 1.568
1.4498934 -0.30916846 1.0660981 0.93799996
1.4552239 -0.30916846 1.0660981 0.93799996
1.4605544 -0.30916846 1.0660981 0.93799996
0.80057806 -0.16763006 0.5780347 1.7299999
0.70635718 -0.14631686 0.50454086 1.982
0.70887989 -0.14631686 0.50454086 1.982
0.73158425 -0.14631686 0.50454086 1.982
-0.80366492 -0.14921467 0.52356023 1.91
-0.83242655 -0.15505984 0.54406965 1.8379999
-0.82970619 -0.15505984 0.54406965 1.8379999
-0.82698584 -0.15505984 0.54406965 1.8379999
-0.82426554 -0.15505984 0.54406965 1.8379999
-0.84641254 -0.15975337 0.56053811 1.784
-4.0746751 -0.92532468 3.2467532 0.308
-4.0584416 -0.92532468 3.2467532 0.308
-4.0422077 -0.92532468 3.2467532 0.308
-4.0259738 -0.92532468 3.2467532 0.308
0.26400864 -0.15355605 0.53879315 1.8559998
0.26670262 -0.15355605 0.53879315 1.8559998
0.3155604 -0.15505984 0.54406965 1.8379999
0.31828076 -0.15505984 0.54406965 1.8379999
0.32100108 -0.15505984 0.54406965 1.8379999
0.34482762 -0.15355605 0.53879315 1.8559998
0.35439557 -0.1565934 0.54945052 1.8200001
3.0296609 -1.2076271 4.237288 0.236
0.40314138 -0.14921467 0.52356023 1.91
0.40575919 -0.14921467 0.52356023 1.91
0.63937753 -0.19282813 0.67658997 1.478
0.56289643 -0.15063426 0.52854127 1.8919998
0.63459271 -0.16824086 0.5903188 1.6939999
0.60425317 -0.14782159 0.51867223 1.9279999
0.68105382 -0.15975337 0.56053811 1.784
0.92793369 -0.18176021 0.6377551 1.568
-1.0281065 -0.20710059 0.73964494 1.352
-1.0974643 -0.22187005 0.79239303 1.262
-1.0935024 -0.22187005 0.79239303 1.262
-1.0895404 -0.22187005 0.79239303 1.262
0.29379761 -0.1523395 0.54406965 1.8379999
0.31502891 -0.16184972 0.5780347 1.7299999
0.31791908 -0.16184972 0.5780347 1.7299999
0.32080925 -0.16184972 0.5780347 1.7299999
0.78521937 -0.32332563 1.1547344 0.86600006
0.40052357 -0.14659686 0.52356023 1.91
0.40314138 -0.14659686 0.52356023 1.91
0.40575919 -0.14659686 0.52356023 1.91
0.51331854 -0.15538292 0.55493897 1.8019999
0.64952636 -0.1894452 0.67658997 1.478
0.65290934 -0.1894452 0.67658997 1.478
0.59146345 -0.17073171 0.60975611 1.64
0.59451222 -0.17073171 0.60975611 1.64
0.6265586 -0.17456359 0.6234414 1.604
0.56025374 -0.14799155 0.52854127 1.8919998
0.56289643 -0.14799155 0.52854127 1.8919998
0.60164833 -0.15384614 0.54945052 1.8200001
0.71773219 -0.16887817 0.6031363 1.658
0.78929985 -0.18494055 0.66050196 1.5140001
1.4445629 -0.29850745 1.0660981 0.93799996
1.4552239 -0.29850745 1.0660981 0.93799996
0.88329083 -0.17857143 0.6377551 1.568
0.88647956 -0.17857143 0.6377551 1.568
0.7114026 -0.14127144 0.50454086 1.982
0.72906154 -0.14127144 0.50454086 1.982
0.92793369 -0.17857143 0.6377551 1.568
0.94193554 -0.18064517 0.64516133 1.55
-0.80164438 -0.14131552 0.51387459 1.9460001
-0.79907501 -0.14131552 0.51387459 1.9460001
-0.79650563 -0.14131552 0.51387459 1.9460001
0.41099477 -0.14397906 0.52356023 1.91
0.96509242 -0.28234085 1.0266941 0.97399998
0.61790675 -0.17339219 0.63051707 1.5859998
0.58146399 -0.16233768 0.5903188 1.6939999
0.62421191 -0.17339219 0.63051707 1.5859998
0.6265586 -0.17144638 0.6234414 1.604
0.65926892 -0.17950392 0.65274149 1.5320001
0.59655941 -0.15260822 0.55493897 1.8019999
0.58403808 -0.14534885 0.52854127 1.8919998
0.75200534 -0.18382353 0.66844916 1.4960001
0.68935931 -0.15732266 0.5720824 1.7479999
0.73884195 -0.16586249 0.6031363 1.658
0.75 -0.16768293 0.60975611 1.64
2.4901187 -0.54347825 1.9762846 0.50599998
2.0015824 -0.43512663 1.5822786 0.63199997
1.1689421 -0.23464166 0.8532424 1.1719999
1.1732084 -0.23464166 0.8532424 1.1719999
1.078125 -0.21484375 0.78125 1.28
0.70635718 -0.13874874 0.50454086 1.982
0.94193554 -0.17741936 0.64516133 1.55
0.25898522 -0.14270614 0.52854127 1.8919998
0.27746636 -0.1513453 0.56053811 1.784
0.28026906 -0.1513453 0.56053811 1.784
0.29811099 -0.15938607 0.5903188 1.6939999
0.30106258 -0.15938607 0.5903188 1.6939999
0.30401418 -0.15938607 0.5903188 1.6939999
0.40224034 -0.13747455 0.50916499 1.9639999
0.40478617 -0.13747455 0.50916499 1.9639999
0.63051707 -0.17023961 0.63051707 1.5859998
0.63279301 -0.16832918 0.6234414 1.604
0.63591021 -0.16832918 0.6234414 1.604
0.59378469 -0.14983352 0.55493897 1.8019999
0.63754427 -0.15938607 0.5903188 1.6939999
0.70322585 -0.17419356 0.64516133 1.55
0.6098901 -0.14835164 0.54945052 1.8200001
1.1872386 -0.2824268 1.0460252 0.95599997
0.70868516 -0.1628468 0.6031363 1.658
0.71170086 -0.1628468 0.6031363 1.658
0.67791766 -0.15446225 0.5720824 1.7479999
0.68077803 -0.15446225 0.5720824 1.7479999
0.67544842 -0.1513453 0.56053811 1.784
0.67825109 -0.1513453 0.56053811 1.784
0.84257972 -0.18723994 0.69348127 1.442
0.81241739 -0.17833553 0.66050196 1.5140001
0.8157199 -0.17833553 0.66050196 1.5140001
0.81902242 -0.17833553 0.66050196 1.5140001
1.0154976 -0.22022837 0.81566066 1.2260001
6.5250001 -1.35 5 0.2
0.93112242 -0.17219387 0.6377551 1.568
-0.79969728 -0.13370332 0.50454086 1.982
-0.86564165 -0.17713903 0.66844916 1.4960001
-0.86229944 -0.17713903 0.66844916 1.4960001
-0.90238768 -0.18609551 0.7022472 1.424
-0.94304729 -0.19600591 0.73964494 1.352
-0.9921875 -0.20703125 0.78125 1.28
-1.0471854 -0.21937084 0.82781452 1.2080001
-1.1795113 -0.24906015 0.93984962 1.064
0.42811844 -0.14006343 0.52854127 1.8919998
0.53571427 -0.14560439 0.54945052 1.8200001
0.63164109 -0.15643448 0.5903188 1.6939999
0.63459271 -0.15643448 0.5903188 1.6939999
0.68095845 -0.16708702 0.63051707 1.5859998
0.61378926 -0.1485426 0.56053811 1.784
0.58139539 -0.14006343 0.52854127 1.8919998
0.58403808 -0.14006343 0.52854127 1.8919998
0.6098901 -0.14560439 0.54945052 1.8200001
0.63137031 -0.15005662 0.5662514 1.766
0.69050556 -0.16337855 0.61652285 1.6219999
0.78016645 -0.18377253 0.69348127 1.442
1.5120482 -0.31927711 1.2048193 0.82999998
1.9936711 -0.41930383 1.5822786 0.63199997
2.0015824 -0.41930383 1.5822786 0.63199997
1.0742188 -0.20703125 0.78125 1.28
1.078125 -0.20703125 0.78125 1.28
0.71644801 -0.13370332 0.50454086 1.982
-2.4897542 -0.53278691 2.0491805 0.48799995
-2.4795084 -0.53278691 2.0491805 0.48799995
0.29748285 -0.14874142 0.5720824 1.7479999
0.28286639 -0.14008622 0.53879315 1.8559998
0.28556037 -0.14008622 0.53879315 1.8559998
0.40987781 -0.1323829 0.50916499 1.9639999
0.60727501 -0.16029593 0.61652285 1.6219999
0.64621407 -0.16971278 0.65274149 1.5320001
0.6577307 -0.16209476 0.6234414 1.604
0.57853407 -0.13612565 0.52356023 1.91
1.0318182 -0.23636363 0.90909088 1.1
1.0363636 -0.23636363 0.90909088 1.1
1.1976988 -0.27196655 1.0460252 0.95599997
0.70868516 -0.15681544 0.6031363 1.658
0.78328979 -0.16971278 0.65274149 1.5320001
0.65560395 -0.14145811 0.54406965 1.8379999
0.6583243 -0.14145811 0.54406965 1.8379999
0.73582631 -0.15681544 0.6031363 1.658
0.73884195 -0.15681544 0.6031363 1.658
0.81241739 -0.1717305 0.66050196 1.5140001
2.0015824 -0.41139245 1.5822786 0.63199997
2.7021279 -0.55319154 2.1276598 0.46999994
0.79768789 -0.15028903 0.5780347 1.7299999
0.69878912 -0.13118063 0.50454086 1.982
0.70383447 -0.13118063 0.50454086 1.982
0.80924857 -0.15028903 0.5780347 1.7299999
0.86776865 -0.15348288 0.5903188 1.6939999
0.87072021 -0.15348288 0.5903188 1.6939999
-1.2329353 -0.21757682 0.8532424 1.1719999
-1.4158416 -0.25247526 0.99009901 1.01
-0.90158516 -0.168428 0.66050196 1.5140001
-0.89828265 -0.168428 0.66050196 1.5140001
-0.89498013 -0.168428 0.66050196 1.5140001
-0.93619972 -0.17683773 0.69348127 1.442
-1.0811898 -0.20498392 0.80385852 1.244
-0.90589887 -0.17907304 0.7022472 1.424
0.2998879 -0.14293721 0.56053811 1.784
0.3026906 -0.14293721 0.56053811 1.784
0.54913294 -0.14739884 0.5780347 1.7299999
0.61035764 -0.15721333 0.61652285 1.6219999
0.70041609 -0.17683773 0.69348127 1.442
0.70388347 -0.17683773 0.69348127 1.442
0.6608479 -0.15897755 0.6234414 1.604
0.66396511 -0.15897755 0.6234414 1.604
0.66708231 -0.15897755 0.6234414 1.604
0.67019951 -0.15897755 0.6234414 1.604
0.60538119 -0.14293721 0.56053811 1.784
0.60210878 -0.14150944 0.55493897 1.8019999
0.57611001 -0.13477802 0.52854127 1.8919998
1.1858317 -0.26180699 1.0266941 0.97399998
0.74788904 -0.15379976 0.6031363 1.658
1.4858491 -0.30070758 1.1792454 0.84799993
1.5240965 -0.30722892 1.2048193 0.82999998
2.7127662 -0.54255325 2.1276598 0.46999994
0.84404206 -0.14894861 0.58411217 1.7119999
0.83518314 -0.14150944 0.55493897 1.8019999
-0.78752649 -0.13213532 0.52854127 1.8919998
-0.7848838 -0.13213532 0.52854127 1.8919998
-0.7329843 -0.13089006 0.52356023 1.91
-1.3859276 -0.26652452 1.0660981 0.93799996
-0.98652935 -0.19809826 0.79239303 1.262
-0.98256737 -0.19809826 0.79239303 1.262
-0.97860539 -0.19809826 0.79239303 1.262
-1.0182118 -0.20695363 0.82781452 1.2080001
-1.166348 -0.23900573 0.95602292 1.046
-2.4897542 -0.51229513 2.0491805 0.48799995
-2.4795084 -0.51229513 2.0491805 0.48799995
0.24515088 -0.13469829 0.53879315 1.8559998
0.24784485 -0.13469829 0.53879315 1.8559998
0.29633623 -0.13469829 0.53879315 1.8559998
0.29903018 -0.13469829 0.53879315 1.8559998
1.3023952 -0.37425151 1.4970061 0.66799998
1.3173653 -0.37425151 1.4970061 0.66799998
0.70735091 -0.17337032 0.69348127 1.442
0.81640625 -0.1953125 0.78125 1.28
0.68095845 -0.15762927 0.63051707 1.5859998
0.63294798 -0.14450867 0.5780347 1.7299999
0.69356877 -0.15762927 0.63051707 1.5859998
0.70448875 -0.15586035 0.6234414 1.604
0.87442219 -0.19260401 0.77041602 1.298
1.0409091 -0.22727272 0.90909088 1.1
1.1806982 -0.25667351 1.0266941 0.97399998
1.1858317 -0.25667351 1.0266941 0.97399998
0.70809251 -0.14450867 0.5780347 1.7299999
2.7021279 -0.53191495 2.1276598 0.46999994
2.7127662 -0.53191495 2.1276598 0.46999994
5.4449153 -1.059322 4.237288 0.236
0.70131177 -0.12613522 0.50454086 1.982
0.70383447 -0.12613522 0.50454086 1.982
0.80924857 -0.14450867 0.5780347 1.7299999
0.9171018 -0.16318537 0.65274149 1.5320001
1.4853557 -0.26150629 1.0460252 0.95599997
0.72401613 -0.12613522 0.50454086 1.982
0.83522081 -0.14156285 0.5662514 1.766
0.87662339 -0.1475797 0.5903188 1.6939999
-0.90158516 -0.16182297 0.66050196 1.5140001
-0.89828265 -0.16182297 0.66050196 1.5140001
-0.89498013 -0.16182297 0.66050196 1.5140001
-0.93619972 -0.16990291 0.69348127 1.442
-1.0811898 -0.19694534 0.80385852 1.244
-1.3706366 -0.25154004 1.0266941 0.97399998
-0.9245562 -0.18121301 0.73964494 1.352
0.19230768 -0.13461538 0.54945052 1.8200001
0.19505493 -0.13461538 0.54945052 1.8200001
2.4563956 -0.71220934 2.9069769 0.34399998
2.4709303 -0.71220934 2.9069769 0.34399998
1.3023952 -0.36676648 1.4970061 0.66799998
0.71589208 -0.18365818 0.74962521 1.334
0.69171351 -0.17205057 0.7022472 1.424
0.69873595 -0.17205057 0.7022472 1.424
0.70041609 -0.16990291 0.69348127 1.442
0.76368874 -0.17651296 0.72046107 1.388
0.80927056 -0.18617022 0.75987846 1.316
0.63583815 -0.14161851 0.5780347 1.7299999
0.64161849 -0.14161851 0.5780347 1.7299999
0.59498399 -0.1307364 0.53361791 1.8740001
0.62780267 -0.13733184 0.56053811 1.784
0.6306054 -0.13733184 0.56053811 1.784
0.70760596 -0.15274315 0.6234414 1.604
0.88983053 -0.18875192 0.77041602 1.298
0.85798812 -0.18121301 0.73964494 1.352
1.009532 -0.21230502 0.8665511 1.154
1.0138648 -0.21230502 0.8665511 1.154
1.0181975 -0.21230502 0.8665511 1.154
0.65274847 -0.12949261 0.52854127 1.8919998
1.0972669 -0.19694534 0.80385852 1.244
1.1012862 -0.19694534 0.80385852 1.244
0.80924857 -0.14161851 0.5780347 1.7299999
0.9171018 -0.15992166 0.65274149 1.5320001
0.72401613 -0.12361251 0.50454086 1.982
-1.2805872 -0.19575855 0.81566066 1.2260001
-1.3561524 -0.20797226 0.8665511 1.154
-0.7610994 -0.1268499 0.52854127 1.8919998
-0.75845671 -0.1268499 0.52854127 1.8919998
1.3173653 -0.35928145 1.4970061 0.66799998
0.5487805 -0.14634147 0.60975611 1.64
0.71589208 -0.17991005 0.74962521 1.334
0.81686932 -0.18237083 0.75987846 1.316
0.5818966 -0.12931035 0.53879315 1.8559998
0.62780267 -0.13452914 0.56053811 1.784
0.86538458 -0.17751479 0.73964494 1.352
1.0181975 -0.20797226 0.8665511 1.154
1.0225303 -0.20797226 0.8665511 1.154
0.70520234 -0.13872832 0.5780347 1.7299999
0.64746302 -0.1268499 0.52854127 1.8919998
0.64921468 -0.12565446 0.52356023 1.91
2.7340429 -0.51063836 2.1276598 0.46999994
0.79768789 -0.13872832 0.5780347 1.7299999
1.421371 -0.24193548 1.0080645 0.99199998
1.4801255 -0.25104603 1.0460252 0.95599997
0.92689294 -0.15665796 0.65274149 1.5320001
-0.8711217 -0.1402148 0.59665871 1.676
-0.86813843 -0.1402148 0.59665871 1.676
-0.82951951 -0.13443936 0.5720824 1.7479999
-0.82665908 -0.13443936 0.5720824 1.7479999
-0.67736673 -0.12785637 0.54406965 1.8379999
-0.67464638 -0.12785637 0.54406965 1.8379999
1.0276968 -0.3425656 1.457726 0.68599999
0.50342464 -0.1609589 0.68493152 1.46
1.2994725 -0.31002641 1.3192613 0.75799996
1.3060687 -0.31002641 1.3192613 0.75799996
0.823955 -0.18890676 0.80385852 1.244
0.82797426 -0.18890676 0.80385852 1.244
0.81686932 -0.17857143 0.75987846 1.316
0.5818966 -0.12661639 0.53879315 1.8559998
0.59647304 -0.12188797 0.51867223 1.9279999
0.62840044 -0.12785637 0.54406965 1.8379999
0.86538458 -0.17381656 0.73964494 1.352
0.94375962 -0.18104777 0.77041602 1.298
0.65539116 -0.1242072 0.52854127 1.8919998
0.69367373 -0.13041066 0.55493897 1.8019999
1.2354085 -0.22859922 0.97276264 1.028
6.5 -1.175 5 0.2
0.7492432 -0.1185671 0.50454086 1.982
-1.2627988 -0.19624574 0.8532424 1.1719999
-1.2585325 -0.19624574 0.8532424 1.1719999
-1.2542664 -0.19624574 0.8532424 1.1719999
-0.90479201 -0.14501892 0.63051707 1.5859998
-0.67103934 -0.11604439 0.50454086 1.982
-1.2077068 -0.21616541 0.93984962 1.064
-0.67079747 -0.12392242 0.53879315 1.8559998
-0.66810352 -0.12392242 0.53879315 1.8559998
-2.8894472 -0.57788944 2.5125628 0.398
-2.8768845 -0.57788944 2.5125628 0.398
-2.8643215 -0.57788944 2.5125628 0.398
0.50342464 -0.15753424 0.68493152 1.46
1.3098803 -0.34431139 1.4970061 0.66799998
0.67249244 -0.17477204 0.75987846 1.316
1.2994725 -0.30343011 1.3192613 0.75799996
1.3060687 -0.30343011 1.3192613 0.75799996
1.3783785 -0.31081083 1.3513515 0.73999989
0.56012332 -0.11819115 0.51387459 1.9460001
0.58697969 -0.12273212 0.53361791 1.8740001
0.69512194 -0.1402439 0.60975611 1.64
0.59352517 -0.11819115 0.51387459 1.9460001
0.63656151 -0.12513602 0.54406965 1.8379999
1.0153584 -0.19624574 0.8532424 1.1719999
1.0196247 -0.19624574 0.8532424 1.1719999
1.4901478 -0.28325123 1.2315271 0.81199998
0.74582338 -0.1372315 0.59665871 1.676
0.75693607 -0.13872135 0.6031363 1.658
0.93565083 -0.17011833 0.73964494 1.352
1.1590909 -0.2090909 0.90909088 1.1
6.5 -1.15 5 0.2
1.4712154 -0.24520256 1.0660981 0.93799996
1.4872068 -0.24520256 1.0660981 0.93799996
0.99719101 -0.16151686 0.7022472 1.424
0.93015665 -0.15013054 0.65274149 1.5320001
1.0042135 -0.16151686 0.7022472 1.424
0.77855611 -0.12392242 0.53879315 1.8559998
-0.775415 -0.11670125 0.51867223 1.9279999
-1.3860887 -0.22681451 1.0080645 0.99199998
-1.3810483 -0.22681451 1.0080645 0.99199998
-1.376008 -0.22681451 1.0080645 0.99199998
-0.66920567 -0.12241567 0.54406965 1.8379999
-0.68665922 -0.12612107 0.56053811 1.784
-0.71261686 -0.13142523 0.58411217 1.7119999
-0.74907523 -0.13871764 0.61652285 1.6219999
-0.84971911 -0.15800563 0.7022472 1.424
-0.90329838 -0.16866568 0.74962521 1.334
-0.96463025 -0.18086816 0.80385852 1.244
0.21947527 -0.1135217 0.50454086 1.982
0.26955605 -0.11892179 0.52854127 1.8919998
0.27219877 -0.11892179 0.52854127 1.8919998
0.29445073 -0.12740657 0.5662514 1.766
0.29728198 -0.12740657 0.5662514 1.766
1.0204082 -0.32798836 1.457726 0.68599999
1.0276968 -0.32798836 1.457726 0.68599999
1.0422741 -0.32798836 1.457726 0.68599999
0.51027399 -0.1541096 0.68493152 1.46
0.72948331 -0.17097265 0.75987846 1.316
1.3581083 -0.30405408 1.3513515 0.73999989
0.823955 -0.18086816 0.80385852 1.244
0.82797426 -0.18086816 0.80385852 1.244
0.83199358 -0.18086816 0.80385852 1.244
0.64837903 -0.14027432 0.6234414 1.604
0.77739727 -0.1541096 0.68493152 1.46
1.5024631 -0.27709359 1.2315271 0.81199998
0.75693607 -0.13570566 0.6031363 1.658
6.7750001 -1.125 5 0.2
0.75824171 -0.12362637 0.54945052 1.8200001
1.1337683 -0.18352365 0.81566066 1.2260001
1.1460032 -0.18352365 0.81566066 1.2260001
1.421371 -0.22681451 1.0080645 0.99199998
1.1890757 -0.18907565 0.8403362 1.1899999
1.2701252 -0.20125224 0.89445436 1.118
1.0042135 -0.15800563 0.7022472 1.424
0.93548393 -0.1451613 0.64516133 1.55
-1.4681726 -0.2258727 1.0266941 0.97399998
-1.463039 -0.2258727 1.0266941 0.97399998
-1.4579055 -0.2258727 1.0266941 0.97399998
-2.8768845 -0.55276382 2.5125628 0.398
-2.8643215 -0.55276382 2.5125628 0.398
1.3581083 -0.29729733 1.3513515 0.73999989
1.3648651 -0.29729733 1.3513515 0.73999989
0.65043163 -0.13563503 0.61652285 1.6219999
1.3350127 -0.27707809 1.2594459 0.79399997
1.3476071 -0.27707809 1.2594459 0.79399997
1.3539044 -0.27707809 1.2594459 0.79399997
0.87559432 -0.17432646 0.79239303 1.262
0.79353935 -0.15449439 0.7022472 1.424
0.69817072 -0.13414635 0.60975611 1.64
0.59609455 -0.11305241 0.51387459 1.9460001
0.60425317 -0.11410789 0.51867223 1.9279999
0.60684651 -0.11410789 0.51867223 1.9279999
0.6995278 -0.12987013 0.5903188 1.6939999
0.78599733 -0.14531043 0.66050196 1.5140001
0.83918542 -0.15449439 0.7022472 1.424
0.75693607 -0.13268998 0.6031363 1.658
0.84224594 -0.14705881 0.66844916 1.4960001
0.93565083 -0.16272189 0.73964494 1.352
1.2451361 -0.21400778 0.97276264 1.028
1.2722772 -0.21782178 0.99009901 1.01
6.8000002 -1.1 5 0.2
1.2701252 -0.19677997 0.89445436 1.118
1.2745974 -0.19677997 0.89445436 1.118
0.98287672 -0.15068494 0.68493152 1.46
0.92903233 -0.1419355 0.64516133 1.55
0.75933397 -0.11099899 0.50454086 1.982
-1.4653466 -0.21287128 0.99009901 1.01
-1.3860887 -0.21673387 1.0080645 0.99199998
-1.0708193 -0.18344712 0.8532424 1.1719999
-0.68946189 -0.1205157 0.56053811 1.784
-0.68665922 -0.1205157 0.56053811 1.784
-0.68385649 -0.1205157 0.56053811 1.784
0.25479314 -0.10847629 0.50454086 1.982
0.32157677 -0.11151453 0.51867223 1.9279999
0.42729592 -0.13711734 0.6377551 1.568
0.43048468 -0.13711734 0.6377551 1.568
0.4775281 -0.15098315 0.7022472 1.424
0.50342464 -0.14726028 0.68493152 1.46
0.50684935 -0.14726028 0.68493152 1.46
1.3648651 -0.29054058 1.3513515 0.73999989
1.3716217 -0.29054058 1.3513515 0.73999989
1.3224182 -0.27078086 1.2594459 0.79399997
1.3350127 -0.27078086 1.2594459 0.79399997
1.4239691 -0.27706185 1.2886598 0.77599996
0.87955624 -0.1703645 0.79239303 1.262
0.60425317 -0.11151453 0.51867223 1.9279999
0.6183933 -0.11363637 0.52854127 1.8919998
0.60943985 -0.11151453 0.51867223 1.9279999
0.70543098 -0.12691854 0.5903188 1.6939999
0.81529093 -0.14546685 0.67658997 1.478
0.84971911 -0.15098315 0.7022472 1.424
0.97668809 -0.17282958 0.80385852 1.244
1.2673267 -0.21287128 0.99009901 1.01
6.7750001 -1.075 5 0.2
6.8000002 -1.075 5 0.2
1.4765458 -0.22921109 1.0660981 0.93799996
1.172269 -0.18067229 0.8403362 1.1899999
1.436492 -0.21673387 1.0080645 0.99199998
0.92903233 -0.13870968 0.64516133 1.55
0.76185668 -0.10847629 0.50454086 1.982
-0.6583243 -0.11425462 0.54406965 1.8379999
-0.63089007 -0.10994764 0.52356023 1.91
-0.62565446 -0.10994764 0.52356023 1.91
0.51109815 -0.12266356 0.58411217 1.7119999
1.1566266 -0.25301206 1.2048193 0.82999998
1.1626507 -0.25301206 1.2048193 0.82999998
1.3224182 -0.26448363 1.2594459 0.79399997
1.4175258 -0.27061856 1.2886598 0.77599996
0.88351822 -0.16640253 0.79239303 1.262
0.8874802 -0.16640253 0.79239303 1.262
1.0107335 -0.18783541 0.89445436 1.118
1.0489833 -0.19408503 0.92421442 1.082
0.66704035 -0.117713 0.56053811 1.784
0.79260236 -0.13870542 0.66050196 1.5140001
0.84971911 -0.14747192 0.7022472 1.424
1.2525667 -0.21560575 1.0266941 0.97399998
0.83890373 -0.14037432 0.66844916 1.4960001
0.95202398 -0.15742129 0.74962521 1.334
1.1590909 -0.19090909 0.90909088 1.1
4.5517244 -0.72413796 3.448276 0.28999999
1.4565219 -0.22826089 1.0869566 0.9199999
6.8000002 -1.05 5 0.2
6.8249998 -1.05 5 0.2
1.4415323 -0.21169354 1.0080645 0.99199998
1.283542 -0.18783541 0.89445436 1.118
0.92903233 -0.13548388 0.64516133 1.55
0.88109756 -0.12804878 0.60975611 1.64
0.76185668 -0.10595358 0.50454086 1.982
0.76437938 -0.10595358 0.50454086 1.982
-1.3636363 -0.18636362 0.90909088 1.1
-1.3590908 -0.18636362 0.90909088 1.1
-1.3545454 -0.18636362 0.90909088 1.1
-1.470297 -0.2029703 0.99009901 1.01
-0.72869956 -0.11491031 0.56053811 1.784
-0.62240666 -0.10632781 0.51867223 1.9279999
-1.706587 -0.30688626 1.4970061 0.66799998
0.24974772 -0.10343087 0.50454086 1.982
0.51401871 -0.119743 0.58411217 1.7119999
1.1699507 -0.25246304 1.2315271 0.81199998
0.71325648 -0.14769451 0.72046107 1.388
0.71685874 -0.14769451 0.72046107 1.388
0.84003216 -0.164791 0.80385852 1.244
0.84807074 -0.164791 0.80385852 1.244
1.3981959 -0.26417527 1.2886598 0.77599996
1.4175258 -0.26417527 1.2886598 0.77599996
1.0241503 -0.18336314 0.89445436 1.118
0.66763008 -0.11849711 0.5780347 1.7299999
0.60165977 -0.10632781 0.51867223 1.9279999
0.61518329 -0.10732985 0.52356023 1.91
0.75662047 -0.129256 0.63051707 1.5859998
0.79590487 -0.1354029 0.66050196 1.5140001
0.81867385 -0.13870095 0.67658997 1.478
1.4619566 -0.22282611 1.0869566 0.9199999
6.8499999 -1.025 5 0.2
1.227993 -0.18045774 0.88028169 1.136
0.93548393 -0.13225807 0.64516133 1.55
1.4153696 -0.19941634 0.97276264 1.028
-0.71353072 -0.10570826 0.52854127 1.8919998
-0.73177367 -0.10881393 0.54406965 1.8379999
-0.72905332 -0.10881393 0.54406965 1.8379999
-0.76372999 -0.11441648 0.5720824 1.7479999
-0.76086956 -0.11441648 0.5720824 1.7479999
-0.72309417 -0.11210762 0.56053811 1.784
-0.76670647 -0.11933174 0.59665871 1.676
-0.67769474 -0.10672358 0.53361791 1.8740001
-0.67502666 -0.10672358 0.53361791 1.8740001
-0.67235857 -0.10672358 0.53361791 1.8740001
-0.73014021 -0.11682244 0.58411217 1.7119999
-1.0114192 -0.16313213 0.81566066 1.2260001
-1.0073409 -0.16313213 0.81566066 1.2260001
-1.1615678 -0.19120458 0.95602292 1.046
-1.0485269 -0.17331022 0.8665511 1.154
1.0030242 -0.2016129 1.0080645 0.99199998
0.84405142 -0.1607717 0.80385852 1.244
0.77449566 -0.14409222 0.72046107 1.388
0.78832114 -0.14598539 0.729927 1.37
0.87057012 -0.15408321 0.77041602 1.298
0.62632138 -0.10570826 0.52854127 1.8919998
0.67383915 -0.11325028 0.5662514 1.766
1.1181818 -0.18181817 0.90909088 1.1
1 -0.15625 0.78125 1.28
3.0414746 -0.4608295 2.3041475 0.43399999
1.4673915 -0.21739133 1.0869566 0.9199999
1.4728262 -0.21739133 1.0869566 0.9199999
1.563193 -0.22172949 1.1086475 0.90200001
0.89024395 -0.12195122 0.60975611 1.64
-0.73710763 -0.10930493 0.56053811 1.784
-0.69238907 -0.10306555 0.52854127 1.8919998
-0.67502666 -0.10405549 0.53361791 1.8740001
0.20811099 -0.10405549 0.53361791 1.8740001
0.22366931 -0.11041902 0.5662514 1.766
0.22650056 -0.11041902 0.5662514 1.766
0.22933182 -0.11041902 0.5662514 1.766
0.65397346 -0.16142383 0.82781452 1.2080001
0.7196402 -0.14617692 0.74962521 1.334
1.0131048 -0.19657257 1.0080645 0.99199998
0.8046875 -0.15234375 0.78125 1.28
0.84003216 -0.15675241 0.80385852 1.244
0.84405142 -0.15675241 0.80385852 1.244
0.82421875 -0.15234375 0.78125 1.28
0.87057012 -0.15023112 0.77041602 1.298
1.0286225 -0.1744186 0.89445436 1.118
0.66817665 -0.11041902 0.5662514 1.766
0.67383915 -0.11041902 0.5662514 1.766
0.67667043 -0.11041902 0.5662514 1.766
0.73475611 -0.11890244 0.60975611 1.64
0.76607823 -0.12295083 0.63051707 1.5859998
1.0209004 -0.15675241 0.80385852 1.244
1.4121339 -0.2039749 1.0460252 0.95599997
1.4173641 -0.2039749 1.0460252 0.95599997
6.875 -0.97500002 5 0.2
1.5521065 -0.21618626 1.1086475 0.90200001
1.7099057 -0.22995284 1.1792454 0.84799993
1.4153696 -0.18968871 0.97276264 1.028
1.4250972 -0.18968871 0.97276264 1.028
0.76690209 -0.098385468 0.50454086 1.982
-0.61151075 -0.097636171 0.51387459 1.9460001
-0.61462659 -0.098547727 0.51867223 1.9279999
-0.61203325 -0.098547727 0.51867223 1.9279999
-0.63308197 -0.10237069 0.53879315 1.8559998
-0.90729004 -0.15055467 0.79239303 1.262
-0.52976793 -0.095862761 0.50454086 1.982
0.35290951 -0.10237069 0.53879315 1.8559998
0.7196402 -0.14242879 0.74962521 1.334
1.1626507 -0.22891568 1.2048193 0.82999998
0.72713643 -0.14242879 0.74962521 1.334
0.59456396 -0.10758776 0.5662514 1.766
0.63544154 -0.11336515 0.59665871 1.676
0.64837152 -0.1145959 0.6031363 1.658
0.66948128 -0.1145959 0.6031363 1.658
0.86671805 -0.14637904 0.77041602 1.298
0.8357988 -0.14053254 0.73964494 1.352
0.95432299 -0.15497552 0.81566066 1.2260001
0.74085367 -0.11585366 0.60975611 1.64
0.75215787 -0.11713934 0.61652285 1.6219999
0.89416057 -0.13868614 0.729927 1.37
0.97464341 -0.15055467 0.79239303 1.262
0.99276525 -0.15273312 0.80385852 1.244
1.0249196 -0.15273312 0.80385852 1.244
3.0529954 -0.43778801 2.3041475 0.43399999
1.5521065 -0.21064302 1.1086475 0.90200001
1.5909091 -0.21064302 1.1086475 0.90200001
1.450495 -0.18811882 0.99009901 1.01
0.7719475 -0.095862761 0.50454086 1.982
-0.73598135 -0.10806075 0.58411217 1.7119999
-0.92578715 -0.13868067 0.74962521 1.334
-0.97464341 -0.14659271 0.79239303 1.262
-0.97068149 -0.14659271 0.79239303 1.262
-1.1567878 -0.17686424 0.95602292 1.046
-0.61203325 -0.095954359 0.51867223 1.9279999
-0.63308197 -0.099676736 0.53879315 1.8559998
-0.64285707 -0.10164835 0.54945052 1.8200001
-0.67341042 -0.10693642 0.5780347 1.7299999
-0.69963813 -0.11158022 0.6031363 1.658
-0.79109591 -0.12671234 0.68493152 1.46
-0.83941603 -0.1350365 0.729927 1.37
-0.90729004 -0.14659271 0.79239303 1.262
-1.3325473 -0.21816039 1.1792454 0.84799993
-1.326651 -0.21816039 1.1792454 0.84799993
-1.7076924 -0.2846154 1.5384616 0.64999998
0.66640985 -0.14252697 0.77041602 1.298
0.60679609 -0.12829404 0.69348127 1.442
0.625 -0.12991573 0.7022472 1.424
1.1506025 -0.22289157 1.2048193 0.82999998
1.1566266 -0.22289157 1.2048193 0.82999998
0.99798387 -0.18649194 1.0080645 0.99199998
1.0068094 -0.17996109 0.97276264 1.028
0.8125 -0.14453125 0.78125 1.28
0.63245821 -0.11038186 0.59665871 1.676
0.63544154 -0.11038186 0.59665871 1.676
0.79197079 -0.1350365 0.729927 1.37
0.7794944 -0.12991573 0.7022472 1.424
0.86286592 -0.14252697 0.77041602 1.298
1.0330948 -0.16547406 0.89445436 1.118
0.72195703 -0.11038186 0.59665871 1.676
0.99276525 -0.14871383 0.80385852 1.244
0.99678457 -0.14871383 0.80385852 1.244
1.2833676 -0.1899384 1.0266941 0.97399998
3.0529954 -0.4262673 2.3041475 0.43399999
3.0760369 -0.4262673 2.3041475 0.43399999
1.5384616 -0.20927602 1.1312218 0.88399994
1.5576497 -0.20509978 1.1086475 0.90200001
1.563193 -0.20509978 1.1086475 0.90200001
1.5434784 -0.20108697 1.0869566 0.9199999
2.0241477 -0.26278409 1.4204545 0.704
1.7216982 -0.21816039 1.1792454 0.84799993
1.7275945 -0.21816039 1.1792454 0.84799993
1.4554455 -0.18316832 0.99009901 1.01
0.84921527 -0.10369955 0.56053811 1.784
-0.89467722 -0.10192525 0.5662514 1.766
-0.89184594 -0.10192525 0.5662514 1.766
-0.74345553 -0.094240844 0.52356023 1.91
-0.74083769 -0.094240844 0.52356023 1.91
-1.4117043 -0.18480493 1.0266941 0.97399998
-1.4065709 -0.18480493 1.0266941 0.97399998
-1.4014374 -0.18480493 1.0266941 0.97399998
-1.3650628 -0.18828453 1.0460252 0.95599997
-0.50958627 -0.090817355 0.50454086 1.982
0.29334041 -0.095137425 0.52854127 1.8919998
0.45691904 -0.11749347 0.65274149 1.5320001
0.52848577 -0.13493253 0.74962521 1.334
0.53223389 -0.13493253 0.74962521 1.334
0.65397346 -0.14900662 0.82781452 1.2080001
0.60679609 -0.12482662 0.69348127 1.442
1.1626507 -0.21686748 1.2048193 0.82999998
0.7758621 -0.13493253 0.74962521 1.334
0.59173268 -0.10192525 0.5662514 1.766
0.58823532 -0.099889018 0.55493897 1.8019999
0.64837152 -0.10856453 0.6031363 1.658
0.78832114 -0.13138686 0.729927 1.37
0.91059595 -0.14900662 0.82781452 1.2080001
0.77598315 -0.12640449 0.7022472 1.424
0.7970506 -0.12640449 0.7022472 1.424
0.67296344 -0.10625739 0.5903188 1.6939999
0.94208807 -0.14681892 0.81566066 1.2260001
0.94616634 -0.14681892 0.81566066 1.2260001
0.95024467 -0.14681892 0.81566066 1.2260001
0.95432299 -0.14681892 0.81566066 1.2260001
0.62827229 -0.094240844 0.52356023 1.91
0.73780489 -0.1097561 0.60975611 1.64
0.75215787 -0.11097411 0.61652285 1.6219999
0.99276525 -0.14469454 0.80385852 1.244
1.1318182 -0.16363636 0.90909088 1.1
3.6773257 -0.52325583 2.9069769 0.34399998
3.6918607 -0.52325583 2.9069769 0.34399998
3.0760369 -0.41474655 2.3041475 0.43399999
4.4967532 -0.58441556 3.2467532 0.308
4.5129871 -0.58441556 3.2467532 0.308
2.0241477 -0.25568181 1.4204545 0.704
1.7334907 -0.21226417 1.1792454 0.84799993
-0.92203903 -0.13118441 0.74962521 1.334
-0.91829085 -0.13118441 0.74962521 1.334
0.28017244 -0.094288804 0.53879315 1.8559998
0.28286639 -0.094288804 0.53879315 1.8559998
0.61897105 -0.14067525 0.80385852 1.244
0.63102895 -0.14067525 0.80385852 1.244
0.63504821 -0.14067525 0.80385852 1.244
0.54465491 -0.11840324 0.67658997 1.478
0.61797756 -0.12289326 0.7022472 1.424
0.62851125 -0.12289326 0.7022472 1.424
1.0019455 -0.17023346 0.97276264 1.028
0.61623836 -0.10221963 0.58411217 1.7119999
0.65440291 -0.10554885 0.6031363 1.658
0.71148825 -0.11422976 0.65274149 1.5320001
0.72127932 -0.11422976 0.65274149 1.5320001
0.66948128 -0.10554885 0.6031363 1.658
0.67249697 -0.10554885 0.6031363 1.658
0.66004676 -0.10221963 0.58411217 1.7119999
0.62827229 -0.091623038 0.52356023 1.91
0.63089007 -0.091623038 0.52356023 1.91
0.64834577 -0.093383133 0.53361791 1.8740001
0.68385649 -0.098094173 0.56053811 1.784
0.98652935 -0.13866878 0.79239303 1.262
1.1748121 -0.16447368 0.93984962 1.064
1.265121 -0.17641129 1.0080645 0.99199998
3.6918607 -0.50872099 2.9069769 0.34399998
3.7063956 -0.50872099 2.9069769 0.34399998
4.5129871 -0.56818181 3.2467532 0.308
2.03125 -0.24857953 1.4204545 0.704
2.0383523 -0.24857953 1.4204545 0.704
0.84360987 -0.098094173 0.56053811 1.784
0.84641254 -0.098094173 0.56053811 1.784
0.7887975 -0.089928053 0.51387459 1.9460001
-0.84890103 -0.093406588 0.54945052 1.8200001
-0.89017344 -0.098265901 0.5780347 1.7299999
-0.88728327 -0.098265901 0.5780347 1.7299999
-0.96061093 -0.13665594 0.80385852 1.244
-0.95659167 -0.13665594 0.80385852 1.244
-0.72194207 -0.1071879 0.63051707 1.5859998
-0.71878946 -0.1071879 0.63051707 1.5859998
-0.71563685 -0.1071879 0.63051707 1.5859998
-0.76454663 -0.1150203 0.67658997 1.478
-0.76116371 -0.1150203 0.67658997 1.478
-1.3192772 -0.20481929 1.2048193 0.82999998
-0.50454086 -0.085771948 0.50454086 1.982
1.3556852 -0.24781342 1.457726 0.68599999
1.3629738 -0.24781342 1.457726 0.68599999
0.63225812 -0.10967743 0.64516133 1.55
0.79180062 -0.13665594 0.80385852 1.244
0.61039722 -0.099299066 0.58411217 1.7119999
0.67249697 -0.10253317 0.6031363 1.658
0.67001182 -0.10035419 0.5903188 1.6939999
0.67296344 -0.10035419 0.5903188 1.6939999
0.675915 -0.10035419 0.5903188 1.6939999
0.94616634 -0.13866231 0.81566066 1.2260001
1.1092438 -0.14285715 0.8403362 1.1899999
3.0875576 -0.39170507 2.3041475 0.43399999
4.5292206 -0.55194807 3.2467532 0.308
0.79393625 -0.087358683 0.51387459 1.9460001
-0.71347678 -0.09343148 0.5662514 1.766
-0.7106455 -0.09343148 0.5662514 1.766
-0.71510303 -0.094393596 0.5720824 1.7479999
-0.81266314 -0.10770234 0.65274149 1.5320001
-1.3192772 -0.19879518 1.2048193 0.82999998
-3.9154408 -0.60661757 3.6764703 0.27200001
-4.4915252 -0.69915253 4.237288 0.236
-4.4703388 -0.69915253 4.237288 0.236
0.29855248 -0.099517487 0.6031363 1.658
0.43029872 -0.1173542 0.71123755 1.406
0.43385491 -0.1173542 0.71123755 1.406
0.4374111 -0.1173542 0.71123755 1.406
0.44914132 -0.10898282 0.66050196 1.5140001
0.5 -0.12043796 0.729927 1.37
0.50364965 -0.12043796 0.729927 1.37
0.61897105 -0.13263665 0.80385852 1.244
0.42689434 -0.088046953 0.53361791 1.8740001
0.43797606 -0.089771494 0.54406965 1.8379999
0.55142081 -0.11163735 0.67658997 1.478
0.58015692 -0.092488788 0.56053811 1.784
0.60747665 -0.096378505 0.58411217 1.7119999
0.67283165 -0.10522959 0.6377551 1.568
0.70343459 -0.10898282 0.66050196 1.5140001
0.71664464 -0.10898282 0.66050196 1.5140001
0.90231782 -0.13658939 0.82781452 1.2080001
0.91059595 -0.13658939 0.82781452 1.2080001
0.67001182 -0.097402602 0.5903188 1.6939999
0.675915 -0.097402602 0.5903188 1.6939999
0.86581713 -0.12368816 0.74962521 1.334
1.0211267 -0.14524648 0.88028169 1.136
0.72677922 -0.099517487 0.6031363 1.658
0.70080096 -0.094393596 0.5720824 1.7479999
0.68946189 -0.092488788 0.56053811 1.784
0.65274847 -0.087209307 0.52854127 1.8919998
0.78499377 -0.10403532 0.63051707 1.5859998
0.81919056 -0.10770234 0.65274149 1.5320001
0.88483149 -0.11587079 0.7022472 1.424
1.0927151 -0.13658939 0.82781452 1.2080001
1.2090908 -0.14999999 0.90909088 1.1
0.77338123 -0.084789306 0.51387459 1.9460001
0.85201794 -0.092488788 0.56053811 1.784
0.7887975 -0.084789306 0.51387459 1.9460001
0.79136688 -0.084789306 0.51387459 1.9460001
-0.64918536 -0.081466399 0.50916499 1.9639999
-0.71347678 -0.090600222 0.5662514 1.766
-0.704983 -0.090600222 0.5662514 1.766
-0.70215172 -0.090600222 0.5662514 1.766
-0.73687351 -0.095465392 0.59665871 1.676
-0.83217752 -0.110957 0.69348127 1.442
-0.96061093 -0.12861736 0.80385852 1.244
-1.2473347 -0.17057569 1.0660981 0.93799996
-4.4915252 -0.67796606 4.237288 0.236
-4.4703388 -0.67796606 4.237288 0.236
-0.49445003 -0.080726534 0.50454086 1.982
0.47693267 -0.099750623 0.6234414 1.604
0.4036327 -0.080726534 0.50454086 1.982
0.42956242 -0.085378863 0.53361791 1.8740001
0.85215604 -0.16427106 1.0266941 0.97399998
1.3556852 -0.23323616 1.457726 0.68599999
0.70437956 -0.11678832 0.729927 1.37
0.7578125 -0.125 0.78125 1.28
0.57455158 -0.089686096 0.56053811 1.784
0.60747665 -0.093457945 0.58411217 1.7119999
0.77372265 -0.11678832 0.729927 1.37
0.77737224 -0.11678832 0.729927 1.37
0.78102189 -0.11678832 0.729927 1.37
0.79511833 -0.11834319 0.73964494 1.352
0.87057012 -0.12326656 0.77041602 1.298
0.675915 -0.09445101 0.5903188 1.6939999
1.0255282 -0.14084508 0.88028169 1.136
0.6950801 -0.091533184 0.5720824 1.7479999
0.69794053 -0.091533184 0.5720824 1.7479999
0.68665922 -0.089686096 0.56053811 1.784
0.68681312 -0.087912083 0.54945052 1.8200001
0.68956041 -0.087912083 0.54945052 1.8200001
0.74675328 -0.09445101 0.5903188 1.6939999
1.1176472 -0.13445379 0.8403362 1.1899999
1.2147887 -0.14084508 0.88028169 1.136
1.5667422 -0.18099548 1.1312218 0.88399994
1.196192 -0.13245033 0.82781452 1.2080001
1.2003311 -0.13245033 0.82781452 1.2080001
1.2044702 -0.13245033 0.82781452 1.2080001
0.74167508 -0.080726534 0.50454086 1.982
0.75681126 -0.080726534 0.50454086 1.982
0.7887975 -0.082219936 0.51387459 1.9460001
-1.1689421 -0.13225257 0.8532424 1.1719999
-1.1646758 -0.13225257 0.8532424 1.1719999
-0.82026535 -0.09348613 0.6031363 1.658
-0.79488778 -0.096633419 0.6234414 1.604
-0.72082382 -0.088672772 0.5720824 1.7479999
-0.48940465 -0.078203835 0.50454086 1.982
0.30829597 -0.086883411 0.56053811 1.784
0.39858729 -0.078203835 0.50454086 1.982
1.3622755 -0.23203593 1.4970061 0.66799998
1.3697605 -0.23203593 1.4970061 0.66799998
0.70802921 -0.11313868 0.729927 1.37
0.56922197 -0.088672772 0.5720824 1.7479999
0.69178081 -0.10616439 0.68493152 1.46
0.58015692 -0.086883411 0.56053811 1.784
0.78467155 -0.11313868 0.729927 1.37
0.71148825 -0.10117493 0.65274149 1.5320001
0.79109591 -0.10616439 0.68493152 1.46
0.8936826 -0.11941449 0.77041602 1.298
1.0299295 -0.13644366 0.88028169 1.136
0.73281062 -0.09348613 0.6031363 1.658
0.65803385 -0.081923895 0.52854127 1.8919998
1.1092438 -0.13025211 0.8403362 1.1899999
1.1176472 -0.13025211 0.8403362 1.1899999
7.0749998 -0.77499998 5 0.2
2.7194657 -0.29580152 1.908397 0.52399999
1.2044702 -0.12831125 0.82781452 1.2080001
0.94516134 -0.10000001 0.64516133 1.55
1.7321016 -0.17898382 1.1547344 0.86600006
0.77595061 -0.079650559 0.51387459 1.9460001
-0.80939943 -0.097911224 0.65274149 1.5320001
-0.73687351 -0.089498803 0.59665871 1.676
-0.73389024 -0.089498803 0.59665871 1.676
-0.76371568 -0.093516208 0.6234414 1.604
-0.76059848 -0.093516208 0.6234414 1.604
-0.75748128 -0.093516208 0.6234414 1.604
-0.78981721 -0.097911224 0.65274149 1.5320001
-1.2579957 -0.15991472 1.0660981 0.93799996
-1.2526653 -0.15991472 1.0660981 0.93799996
-1.2473347 -0.15991472 1.0660981 0.93799996
-1.3072289 -0.18072289 1.2048193 0.82999998
-1.3012049 -0.18072289 1.2048193 0.82999998
-1.2951808 -0.18072289 1.2048193 0.82999998
-4.4067793 -0.63559318 4.237288 0.236
-4.3855929 -0.63559318 4.237288 0.236
-0.48435923 -0.075681128 0.50454086 1.982
0.47381547 -0.093516208 0.6234414 1.604
0.47693267 -0.093516208 0.6234414 1.604
0.39858729 -0.075681128 0.50454086 1.982
0.84702259 -0.15400411 1.0266941 0.97399998
0.70437956 -0.10948905 0.729927 1.37
0.7578125 -0.1171875 0.78125 1.28
0.63225812 -0.096774198 0.64516133 1.55
0.58146399 -0.088547818 0.5903188 1.6939999
0.60068655 -0.08581236 0.5720824 1.7479999
0.7067371 -0.099075295 0.66050196 1.5140001
0.71664464 -0.099075295 0.66050196 1.5140001
0.93430042 -0.12798636 0.8532424 1.1719999
0.79971176 -0.10806916 0.72046107 1.388
0.68742299 -0.092478424 0.61652285 1.6219999
0.81051868 -0.10806916 0.72046107 1.388
0.81412101 -0.10806916 0.72046107 1.388
0.81772333 -0.10806916 0.72046107 1.388
0.67886662 -0.088547818 0.5903188 1.6939999
0.79452056 -0.10273973 0.68493152 1.46
0.87331337 -0.11244378 0.74962521 1.334
0.65706807 -0.078534037 0.52356023 1.91
0.65968591 -0.078534037 0.52356023 1.91
0.69505489 -0.082417578 0.54945052 1.8200001
0.75775653 -0.089498803 0.59665871 1.676
0.83224541 -0.097911224 0.65274149 1.5320001
0.8556149 -0.10026737 0.66844916 1.4960001
0.98998457 -0.1155624 0.77041602 1.298
1.2003311 -0.12417218 0.82781452 1.2080001
1.288396 -0.12798636 0.8532424 1.1719999
0.78203833 -0.075681128 0.50454086 1.982
0.78708375 -0.075681128 0.50454086 1.982
-0.71644801 -0.073158428 0.50454086 1.982
-0.79275197 -0.082106456 0.5662514 1.766
-0.78992069 -0.082106456 0.5662514 1.766
-1.1732082 -0.12372015 0.8532424 1.1719999
-1.1689421 -0.12372015 0.8532424 1.1719999
-1.1646758 -0.12372015 0.8532424 1.1719999
-0.68446094 -0.076638483 0.52854127 1.8919998
-0.73798633 -0.082951948 0.5720824 1.7479999
-0.7351259 -0.082951948 0.5720824 1.7479999
-0.79800498 -0.090399005 0.6234414 1.604
-0.79488778 -0.090399005 0.6234414 1.604
-0.79177058 -0.090399005 0.6234414 1.604
-0.71510297 -0.082951948 0.5720824 1.7479999
-0.79250717 -0.10446686 0.72046107 1.388
-4.4279661 -0.61440676 4.237288 0.236
-0.67179143 -0.096925132 0.66844916 1.4960001
-0.49697274 -0.073158428 0.50454086 1.982
-0.47931382 -0.073158428 0.50454086 1.982
0.33878505 -0.084696263 0.58411217 1.7119999
0.34170562 -0.084696263 0.58411217 1.7119999
0.39354187 -0.073158428 0.50454086 1.982
0.40110999 -0.073158428 0.50454086 1.982
0.56922197 -0.082951948 0.5720824 1.7479999
0.5903188 -0.085596226 0.5903188 1.6939999
0.5949657 -0.082951948 0.5720824 1.7479999
0.78832114 -0.10583942 0.729927 1.37
0.93856663 -0.12372015 0.8532424 1.1719999
0.79971176 -0.10446686 0.72046107 1.388
0.68181819 -0.085596226 0.5903188 1.6939999
1.2166325 -0.14887063 1.0266941 0.97399998
1.2217659 -0.14887063 1.0266941 0.97399998
0.65706807 -0.075916231 0.52356023 1.91
0.65968591 -0.075916231 0.52356023 1.91
0.76073986 -0.086515516 0.59665871 1.676
1.1680673 -0.12184875 0.8403362 1.1899999
1.2058824 -0.12184875 0.8403362 1.1899999
3.1808515 -0.30851066 2.1276598 0.46999994
1.768868 -0.17099057 1.1792454 0.84799993
1.7378752 -0.16743648 1.1547344 0.86600006
0.78960645 -0.073158428 0.50454086 1.982
-0.75436407 -0.087281793 0.6234414 1.604
-0.7865535 -0.091383807 0.65274149 1.5320001
-0.63420159 -0.079275198 0.5662514 1.766
-0.63137031 -0.079275198 0.5662514 1.766
-0.79250717 -0.10086455 0.72046107 1.388
-4.3855929 -0.59322029 4.237288 0.236
-0.67179143 -0.093582883 0.66844916 1.4960001
-0.49697274 -0.070635721 0.50454086 1.982
0.28520039 -0.071942441 0.51387459 1.9460001
0.53051317 -0.097087376 0.69348127 1.442
0.81653225 -0.14112903 1.0080645 0.99199998
0.82198441 -0.13618676 0.97276264 1.028
3.2169116 -0.51470584 3.6764703 0.27200001
0.7578125 -0.109375 0.78125 1.28
0.58924484 -0.080091536 0.5720824 1.7479999
0.61393154 -0.082644634 0.5903188 1.6939999
0.68742299 -0.086313196 0.61652285 1.6219999
0.73976219 -0.092470273 0.66050196 1.5140001
0.74636722 -0.092470273 0.66050196 1.5140001
0.74966973 -0.092470273 0.66050196 1.5140001
0.61099249 -0.07470651 0.53361791 1.8740001
0.68476981 -0.082644634 0.5903188 1.6939999
1.1995968 -0.14112903 1.0080645 0.99199998
0.6449126 -0.071942441 0.51387459 1.9460001
0.64748198 -0.071942441 0.51387459 1.9460001
0.76073986 -0.083532222 0.59665871 1.676
0.8556149 -0.093582883 0.66844916 1.4960001
1.1680673 -0.11764707 0.8403362 1.1899999
0.94384301 -0.094722599 0.67658997 1.478
0.94722593 -0.094722599 0.67658997 1.478
2.6908398 -0.26717559 1.908397 0.52399999
1.2058824 -0.11764707 0.8403362 1.1899999
0.84112149 -0.081775703 0.58411217 1.7119999
3.2021279 -0.29787236 2.1276598 0.46999994
1.7494226 -0.16166282 1.1547344 0.86600006
-0.68890274 -0.08416459 0.6234414 1.604
-0.72655213 -0.089167766 0.66050196 1.5140001
-0.72324961 -0.089167766 0.66050196 1.5140001
-0.72860956 -0.090240635 0.66844916 1.4960001
-0.78170025 -0.097262241 0.72046107 1.388
-0.83204931 -0.10400616 0.77041602 1.298
-1.2617925 -0.15919812 1.1792454 0.84799993
-0.49949545 -0.068113014 0.50454086 1.982
-0.49192733 -0.068113014 0.50454086 1.982
0.36715245 -0.075672649 0.56053811 1.784
0.53051317 -0.093619972 0.69348127 1.442
0.53398055 -0.093619972 0.69348127 1.442
0.82661289 -0.13608871 1.0080645 0.99199998
0.81225681 -0.13132295 0.97276264 1.028
0.75297225 -0.089167766 0.66050196 1.5140001
0.6311208 -0.073449403 0.54406965 1.8379999
0.76370752 -0.088120103 0.65274149 1.5320001
0.90523881 -0.10400616 0.77041602 1.298
1.1945565 -0.13608871 1.0080645 0.99199998
1.1995968 -0.13608871 1.0080645 0.99199998
1.1506469 -0.12476895 0.92421442 1.082
0.77065355 -0.083230585 0.61652285 1.6219999
0.66230369 -0.070680633 0.52356023 1.91
1.5886699 -0.16625616 1.2315271 0.81199998
0.84174031 -0.085119806 0.63051707 1.5859998
0.84489286 -0.085119806 0.63051707 1.5859998
2.7003818 -0.2576336 1.908397 0.52399999
2.7194657 -0.2576336 1.908397 0.52399999
3.0532789 -0.27663937 2.0491805 0.48799995
3.063525 -0.27663937 2.0491805 0.48799995
3.0942626 -0.27663937 2.0491805 0.48799995
1.2969284 -0.11518773 0.8532424 1.1719999
0.98387104 -0.087096781 0.64516133 1.55
0.77699292 -0.068113014 0.50454086 1.982
0.78456104 -0.068113014 0.50454086 1.982
-0.69226456 -0.072869956 0.56053811 1.784
-0.71098268 -0.075144514 0.5780347 1.7299999
-0.71553743 -0.075934581 0.58411217 1.7119999
-1.1042064 -0.12428298 0.95602292 1.046
-0.85059166 -0.09615384 0.73964494 1.352
-0.88212633 -0.10015408 0.77041602 1.298
-0.93956947 -0.10761589 0.82781452 1.2080001
-0.87057012 -0.10015408 0.77041602 1.298
-0.60075438 -0.070043109 0.53879315 1.8559998
0.41251779 -0.092460878 0.71123755 1.406
0.41607398 -0.092460878 0.71123755 1.406
0.41963014 -0.092460878 0.71123755 1.406
0.53744799 -0.090152562 0.69348127 1.442
0.82198441 -0.12645914 0.97276264 1.028
0.68335587 -0.087956697 0.67658997 1.478
0.68578553 -0.081047378 0.6234414 1.604
0.62840044 -0.070729055 0.54406965 1.8379999
1.0554562 -0.11627907 0.89445436 1.118
1.1995968 -0.13104838 1.0080645 0.99199998
0.65005136 -0.066803694 0.51387459 1.9460001
0.71748877 -0.072869956 0.56053811 1.784
1.5948275 -0.16009852 1.2315271 0.81199998
0.84489286 -0.08196722 0.63051707 1.5859998
0.84804547 -0.08196722 0.63051707 1.5859998
2.7003818 -0.24809161 1.908397 0.52399999
3.75 -0.34210527 2.6315789 0.38
3.0942626 -0.26639345 2.0491805 0.48799995
1.0032259 -0.08387097 0.64516133 1.55
0.79465187 -0.065590315 0.50454086 1.982
-0.69786996 -0.070067264 0.56053811 1.784
-0.69506729 -0.070067264 0.56053811 1.784
-0.69226456 -0.070067264 0.56053811 1.784
-0.71553743 -0.073014021 0.58411217 1.7119999
-0.75215787 -0.077065356 0.61652285 1.6219999
-0.77487242 -0.079719387 0.6377551 1.568
-0.77168369 -0.079719387 0.6377551 1.568
-0.82534248 -0.08561644 0.68493152 1.46
-0.88757396 -0.092455618 0.73964494 1.352
-1.0355285 -0.10831889 0.8665511 1.154
-1.0311958 -0.10831889 0.8665511 1.154
-0.92715228 -0.10347681 0.82781452 1.2080001
-0.62570781 -0.070781425 0.5662514 1.766
-0.68578553 -0.077930175 0.6234414 1.604
-0.68266833 -0.077930175 0.6234414 1.604
-0.71994716 -0.082562745 0.66050196 1.5140001
-0.78170025 -0.090057634 0.72046107 1.388
-0.91723555 -0.1066553 0.8532424 1.1719999
-1.1640798 -0.13858093 1.1086475 0.90200001
-3.9960628 -0.49212596 3.9370077 0.25400001
-0.47931382 -0.063067608 0.50454086 1.982
-0.46417758 -0.063067608 0.50454086 1.982
0.82661289 -0.12600806 1.0080645 0.99199998
0.62319881 -0.090057634 0.72046107 1.388
0.57630736 -0.066702239 0.53361791 1.8740001
0.57897544 -0.066702239 0.53361791 1.8740001
0.63005781 -0.072254337 0.5780347 1.7299999
0.68266833 -0.077930175 0.6234414 1.604
0.73022956 -0.079719387 0.6377551 1.568
1.5554157 -0.15743074 1.2594459 0.79399997
0.64076692 -0.063067608 0.50454086 1.982
2.4354243 -0.23062731 1.8450185 0.542
2.5092251 -0.23062731 1.8450185 0.542
2.7003818 -0.23854962 1.908397 0.52399999
3.7368422 -0.32894737 2.6315789 0.38
3.75 -0.32894737 2.6315789 0.38
3.1045084 -0.25614756 2.0491805 0.48799995
0.79717457 -0.063067608 0.50454086 1.982
-0.63656151 -0.065288357 0.54406965 1.8379999
-1.1042064 -0.11472275 0.95602292 1.046
-0.85059166 -0.088757396 0.73964494 1.352
-0.88212633 -0.092449926 0.77041602 1.298
-0.94370854 -0.099337742 0.82781452 1.2080001
-0.93956947 -0.099337742 0.82781452 1.2080001
-0.93543041 -0.099337742 0.82781452 1.2080001
-1.1640798 -0.1330377 1.1086475 0.90200001
-1.1585366 -0.1330377 1.1086475 0.90200001
-3.9763777 -0.47244093 3.9370077 0.25400001
-0.46417758 -0.060544904 0.50454086 1.982
0.54438281 -0.083217755 0.69348127 1.442
0.5360992 -0.064655177 0.53879315 1.8559998
0.52879584 -0.062827229 0.52356023 1.91
0.57363927 -0.064034149 0.53361791 1.8740001
0.60425317 -0.062240668 0.51867223 1.9279999
0.70566946 -0.072376356 0.6031363 1.658
0.65262073 -0.06166495 0.51387459 1.9460001
0.75855964 -0.070838258 0.5903188 1.6939999
1.1538461 -0.10733452 0.89445436 1.118
4.7241383 -0.41379312 3.448276 0.28999999
3.7631578 -0.31578946 2.6315789 0.38
0.87202716 -0.067950167 0.5662514 1.766
0.78456104 -0.060544904 0.50454086 1.982
0.78960645 -0.060544904 0.50454086 1.982
0.79717457 -0.060544904 0.50454086 1.982
-5.8070865 -0.45275587 3.9370077 0.25400001
-5.7874012 -0.45275587 3.9370077 0.25400001
-3.9960628 -0.45275587 3.9370077 0.25400001
-3.9763777 -0.45275587 3.9370077 0.25400001
-0.55491996 -0.065789476 0.5720824 1.7479999
-0.48818088 -0.059095576 0.51387459 1.9460001
-0.47426841 -0.058022197 0.50454086 1.982
0.45016986 -0.065118909 0.5662514 1.766
0.84173387 -0.11592742 1.0080645 0.99199998
0.5602988 -0.061366059 0.53361791 1.8740001
0.60354692 -0.065789476 0.5720824 1.7479999
0.60640734 -0.065789476 0.5720824 1.7479999
0.60926777 -0.065789476 0.5720824 1.7479999
0.60425317 -0.059647307 0.51867223 1.9279999
0.70868516 -0.069360673 0.6031363 1.658
0.78877002 -0.076871656 0.66844916 1.4960001
0.87647927 -0.085059166 0.73964494 1.352
1.1424474 -0.10994264 0.95602292 1.046
0.84203655 -0.07506527 0.65274149 1.5320001
0.82589287 -0.073341839 0.6377551 1.568
1.9241983 -0.1676385 1.457726 0.68599999
2.4446495 -0.21217713 1.8450185 0.542
2.4538746 -0.21217713 1.8450185 0.542
2.4630997 -0.21217713 1.8450185 0.542
2.4723248 -0.21217713 1.8450185 0.542
1.2727273 -0.10454545 0.90909088 1.1
3.6973684 -0.30263159 2.6315789 0.38
3.7631578 -0.30263159 2.6315789 0.38
0.84080714 -0.064461879 0.56053811 1.784
1.2499999 -0.095198669 0.82781452 1.2080001
1.8719212 -0.14162561 1.2315271 0.81199998
1.010568 -0.075957723 0.66050196 1.5140001
0.99032265 -0.074193552 0.64516133 1.55
-0.85989004 -0.060439557 0.54945052 1.8200001
-0.90173411 -0.063583814 0.5780347 1.7299999
-0.89884394 -0.063583814 0.5780347 1.7299999
-0.89595377 -0.063583814 0.5780347 1.7299999
-1.1039604 -0.10891089 0.99009901 1.01
-0.57068062 -0.057591625 0.52356023 1.91
