# .PCD v0.7 - Point Cloud Data file format
VERSION 0.7
FIELDS x y z intensity
SIZE 4 4 4 4
TYPE F F F F
COUNT 1 1 1 1
WIDTH 1179
HEIGHT 1
VIEWPOINT 0 0 0 1 0 0 0
POINTS 1179
DATA ascii
-0.8801775 0.26257396 0.73964494 1.352
-0.88830584 0.26611695 0.74962521 1.334
-0.7020548 0.24315068 0.68493152 1.46
-0.66844916 0.23729946 0.66844916 1.4960001
-0.47931382 0.179112 0.50454086 1.982
-3.6440678 1.5042373 4.237288 0.236
-3.6228812 1.5042373 4.237288 0.236
-0.39419091 0.18412864 0.51867223 1.9279999
0.35439557 0.19505493 0.54945052 1.8200001
-2.9059041 0.66420668 1.8450185 0.542
-2.8966792 0.66420668 1.8450185 0.542
-1.0351826 0.24357238 0.67658997 1.478
-0.90819019 0.23778071 0.66050196 1.5140001
-0.90488768 0.23778071 0.66050196 1.5140001
-1.6939547 0.45340052 1.2594459 0.79399997
-0.8801775 0.26627219 0.73964494 1.352
-0.88830584 0.26986507 0.74962521 1.334
-0.97268206 0.29801324 0.82781452 1.2080001
-4.724576 1.5254236 4.237288 0.236
-1.0457199 0.35019454 0.97276264 1.028
-1.0985626 0.36960986 1.0266941 0.97399998
-0.70547944 0.24657534 0.68493152 1.46
-0.7020548 0.24657534 0.68493152 1.46
-1.457726 0.52478135 1.457726 0.68599999
-1.4504374 0.52478135 1.457726 0.68599999
-2.8633723 1.0465117 2.9069769 0.34399998
-0.46922299 0.18163471 0.50454086 1.982
-3.6652541 1.5254236 4.237288 0.236
-3.6440678 1.5254236 4.237288 0.236
-3.6228812 1.5254236 4.237288 0.236
-0.035317861 0.18163471 0.50454086 1.982
0.3382664 0.19027485 0.52854127 1.8919998
1.034331 0.31690142 0.88028169 1.136
1.0431339 0.31690142 0.88028169 1.136
1.1979969 0.27734977 0.77041602 1.298
1.2057011 0.27734977 0.77041602 1.298
-2.9059041 0.67343175 1.8450185 0.542
-1.264274 0.29771614 0.81566066 1.2260001
-1.2419614 0.29340836 0.80385852 1.244
-1.0547945 0.25 0.68493152 1.46
-1.1054688 0.28515625 0.78125 1.28
-1.0028449 0.25960171 0.71123755 1.406
-0.91149271 0.24108322 0.66050196 1.5140001
-1.7002519 0.45969775 1.2594459 0.79399997
-0.98024321 0.27735564 0.75987846 1.316
-0.88387573 0.26997042 0.73964494 1.352
-0.88830584 0.27361321 0.74962521 1.334
-0.89665657 0.27735564 0.75987846 1.316
-4.7033896 1.5466101 4.237288 0.236
-4.6822033 1.5466101 4.237288 0.236
-1.1088296 0.37474334 1.0266941 0.97399998
-1.0457199 0.35505837 0.97276264 1.028
-1.0985626 0.37474334 1.0266941 0.97399998
-1.4795918 0.53206998 1.457726 0.68599999
-1.4723033 0.53206998 1.457726 0.68599999
-1.4650146 0.53206998 1.457726 0.68599999
-2.8343024 1.0610466 2.9069769 0.34399998
-0.46670029 0.18415742 0.50454086 1.982
0.35164833 0.20054944 0.54945052 1.8200001
0.37471396 0.20881008 0.5720824 1.7479999
0.80514205 0.24695534 0.67658997 1.478
0.80852503 0.24695534 0.67658997 1.478
-1.264274 0.30179444 0.81566066 1.2260001
-1.4001849 0.34195933 0.92421442 1.082
-1.0708783 0.28505394 0.77041602 1.298
-1.0670261 0.28505394 0.77041602 1.298
-0.9632684 0.27736133 0.74962521 1.334
-0.63612568 0.19371729 0.52356023 1.91
-0.63350785 0.19371729 0.52356023 1.91
-0.8801775 0.27366862 0.73964494 1.352
-4.724576 1.5677966 4.237288 0.236
-1.4723033 0.53935862 1.457726 0.68599999
-2.8633723 1.0755814 2.9069769 0.34399998
-2.8488374 1.0755814 2.9069769 0.34399998
-3.5294116 1.360294 3.6764703 0.27200001
-3.511029 1.360294 3.6764703 0.27200001
-3.4926467 1.360294 3.6764703 0.27200001
-0.46670029 0.18668012 0.50454086 1.982
-0.4684318 0.18839104 0.50916499 1.9639999
-0.72183096 0.32570422 0.88028169 1.136
-0.16902119 0.18668012 0.50454086 1.982
0.38719514 0.22560976 0.60975611 1.64
0.40073985 0.22811346 0.61652285 1.6219999
0.81190795 0.25033829 0.67658997 1.478
0.81529093 0.25033829 0.67658997 1.478
0.81867385 0.25033829 0.67658997 1.478
-1.0453315 0.25372124 0.67658997 1.478
-1.0138705 0.24768823 0.66050196 1.5140001
-1.010568 0.24768823 0.66050196 1.5140001
-1.0708783 0.28890601 0.77041602 1.298
-1.0618067 0.29714739 0.79239303 1.262
-0.78407717 0.22617611 0.6031363 1.658
-0.66870147 0.20810211 0.55493897 1.8019999
-0.68649888 0.2145309 0.5720824 1.7479999
-0.80852503 0.25372124 0.67658997 1.478
-0.99904394 0.35850859 0.95602292 1.046
-1.5087464 0.54664725 1.457726 0.68599999
-1.4795918 0.54664725 1.457726 0.68599999
-2.8488374 1.0901164 2.9069769 0.34399998
-2.8343024 1.0901164 2.9069769 0.34399998
-3.511029 1.3786764 3.6764703 0.27200001
-0.47199172 0.19450209 0.51867223 1.9279999
-0.48491383 0.20204742 0.53879315 1.8559998
-0.48221987 0.20204744 0.53879315 1.8559998
0.38414636 0.22865854 0.60975611 1.64
0.42932627 0.24768823 0.66050196 1.5140001
0.81190795 0.25372124 0.67658997 1.478
0.81867385 0.25372124 0.67658997 1.478
-0.98533159 0.24234694 0.6377551 1.568
-1.0138705 0.25099075 0.66050196 1.5140001
-1.010568 0.25099075 0.66050196 1.5140001
-1.0072654 0.25099075 0.66050196 1.5140001
-1.9667592 0.52631587 1.3850417 0.72199994
-4.2331285 1.1656442 3.0674846 0.32600001
-0.78407717 0.22919179 0.6031363 1.658
-0.78106153 0.22919179 0.6031363 1.658
-0.89536518 0.26685393 0.7022472 1.424
-0.95364743 0.28875381 0.75987846 1.316
-0.9765625 0.296875 0.78125 1.28
-0.97265625 0.296875 0.78125 1.28
-0.66870147 0.21087681 0.55493897 1.8019999
-1.0038241 0.3632887 0.95602292 1.046
-0.99426383 0.3632887 0.95602292 1.046
-3.5294116 1.3970587 3.6764703 0.27200001
-0.47199172 0.19709545 0.51867223 1.9279999
0.41611624 0.25099075 0.66050196 1.5140001
0.45874822 0.27027026 0.71123755 1.406
0.46230441 0.27027026 0.71123755 1.406
0.92482102 0.2267303 0.59665871 1.676
-0.96009976 0.24002494 0.6234414 1.604
-0.97895408 0.24553572 0.6377551 1.568
-0.99543077 0.25130546 0.65274149 1.5320001
-4.248466 1.1809816 3.0674846 0.32600001
-4.2331285 1.1809816 3.0674846 0.32600001
-0.95821321 0.27737752 0.72046107 1.388
-0.78106153 0.23220748 0.6031363 1.658
-0.77804583 0.23220748 0.6031363 1.658
-0.78353661 0.2347561 0.60975611 1.64
-0.87725383 0.26699027 0.69348127 1.442
-0.88483149 0.27036518 0.7022472 1.424
-0.9765625 0.30078125 0.78125 1.28
-0.97265625 0.30078125 0.78125 1.28
-0.69221973 0.22025172 0.5720824 1.7479999
-0.98509926 0.3187086 0.82781452 1.2080001
-1.0110922 0.32849833 0.8532424 1.1719999
-1.006826 0.32849833 0.8532424 1.1719999
-1.0681818 0.34999999 0.90909088 1.1
-0.8357988 0.28476331 0.73964494 1.352
-0.92869717 0.33890846 0.88028169 1.136
-0.9868421 0.3618421 0.93984962 1.064
-0.98214287 0.3618421 0.93984962 1.064
-0.97744358 0.3618421 0.93984962 1.064
-1.0131048 0.38810483 1.0080645 0.99199998
-0.39062503 0.20743535 0.53879315 1.8559998
0.46851575 0.28860569 0.74962521 1.334
0.45519203 0.27382645 0.71123755 1.406
0.92482102 0.2297136 0.59665871 1.676
0.93078756 0.2297136 0.59665871 1.676
-3.495575 0.86283177 2.2123892 0.45200002
-3.484513 0.86283177 2.2123892 0.45200002
-0.95698255 0.24314214 0.6234414 1.604
-0.9725765 0.24872449 0.6377551 1.568
-4.2177916 1.196319 3.0674846 0.32600001
-0.99700153 0.29235384 0.74962521 1.334
-0.94380403 0.28097981 0.72046107 1.388
-0.78353661 0.23780489 0.60975611 1.64
-0.88418859 0.27045768 0.69348127 1.442
-0.97879279 0.31810766 0.81566066 1.2260001
-0.98923832 0.32284766 0.82781452 1.2080001
-1.0153584 0.33276454 0.8532424 1.1719999
-1.0110922 0.33276454 0.8532424 1.1719999
-1.1534654 0.38613862 0.99009901 1.01
-0.65789473 0.22311214 0.5720824 1.7479999
-0.74966973 0.25759578 0.66050196 1.5140001
-0.94999999 0.35454544 0.90909088 1.1
-0.94545454 0.35454544 0.90909088 1.1
-1.4868805 0.56851315 1.457726 0.68599999
-1.0080645 0.39314514 1.0080645 0.99199998
-1.0030242 0.39314514 1.0080645 0.99199998
-0.93690246 0.37284893 0.95602292 1.046
-0.39331901 0.21012932 0.53879315 1.8559998
-0.040363267 0.19677094 0.50454086 1.982
0.39092058 0.24590166 0.63051707 1.5859998
0.45163584 0.27738264 0.71123755 1.406
0.47976014 0.29235384 0.74962521 1.334
1.0294118 0.32773113 0.8403362 1.1899999
0.97860539 0.30903327 0.79239303 1.262
-3.5066369 0.87389374 2.2123892 0.45200002
-3.495575 0.87389374 2.2123892 0.45200002
-0.79175156 0.20112017 0.50916499 1.9639999
-0.95252782 0.24352652 0.61652285 1.6219999
-0.95386535 0.24625935 0.6234414 1.604
-0.95074815 0.24625935 0.6234414 1.604
-1.003963 0.26089826 0.66050196 1.5140001
-0.79509068 0.21077907 0.53361791 1.8740001
-1.9459836 0.54709148 1.3850417 0.72199994
-4.2331285 1.2116565 3.0674846 0.32600001
-0.99325341 0.29610196 0.74962521 1.334
-0.77804583 0.23823884 0.6031363 1.658
-0.75297225 0.26089826 0.66050196 1.5140001
-0.91989434 0.34771127 0.88028169 1.136
-1.4868805 0.57580179 1.457726 0.68599999
-1.0131048 0.39818549 1.0080645 0.99199998
-0.99798387 0.39818549 1.0080645 0.99199998
-0.99294353 0.39818549 1.0080645 0.99199998
-1.0341152 0.42110875 1.0660981 0.93799996
-0.74089402 0.32698673 0.82781452 1.2080001
-0.7593857 0.33703074 0.8532424 1.1719999
-0.77904928 0.34771127 0.88028169 1.136
-0.40961948 0.20877381 0.52854127 1.8919998
0.4873217 0.31299525 0.79239303 1.262
0.49128368 0.31299525 0.79239303 1.262
0.47601199 0.29610196 0.74962521 1.334
1.0294118 0.33193281 0.8403362 1.1899999
0.98256737 0.31299525 0.79239303 1.262
0.92183769 0.23568019 0.59665871 1.676
-0.78920573 0.203666 0.50916499 1.9639999
-0.79393625 0.20554984 0.51387459 1.9460001
-1.959834 0.55401671 1.3850417 0.72199994
-1.9390584 0.55401671 1.3850417 0.72199994
-0.70457017 0.21762785 0.54406965 1.8379999
-0.70184982 0.21762785 0.54406965 1.8379999
-2.6170216 0.85106391 2.1276598 0.46999994
-2.6063833 0.85106391 2.1276598 0.46999994
-2.5957448 0.85106391 2.1276598 0.46999994
-1.0110922 0.34129697 0.8532424 1.1719999
-0.66880846 0.23364487 0.58411217 1.7119999
-0.74636722 0.26420078 0.66050196 1.5140001
-0.60640734 0.22883296 0.5720824 1.7479999
-0.6577307 0.24937657 0.6234414 1.604
-1.0019455 0.38910505 0.97276264 1.028
-1.0447761 0.42643923 1.0660981 0.93799996
-1.0489131 0.43478265 1.0869566 0.9199999
-1.0127932 0.42643923 1.0660981 0.93799996
-0.74089402 0.3311258 0.82781452 1.2080001
-0.7593857 0.34129697 0.8532424 1.1719999
-0.7551195 0.34129697 0.8532424 1.1719999
-0.19075145 0.23121388 0.5780347 1.7299999
0.49128368 0.31695721 0.79239303 1.262
0.47226387 0.29985008 0.74962521 1.334
0.97860539 0.31695721 0.79239303 1.262
0.99049127 0.31695721 0.79239303 1.262
-0.79393625 0.20811921 0.51387459 1.9460001
-0.67427391 0.21006225 0.51867223 1.9279999
-2.6063833 0.8617022 2.1276598 0.46999994
-0.76211733 0.25829083 0.6377551 1.568
-0.67464954 0.23656543 0.58411217 1.7119999
-0.97053725 0.35095319 0.8665511 1.154
-0.60640734 0.23169337 0.5720824 1.7479999
-0.94545454 0.36818179 0.90909088 1.1
-1.1085973 0.45814481 1.1312218 0.88399994
-1.0543479 0.44021744 1.0869566 0.9199999
-1.0489131 0.44021744 1.0869566 0.9199999
-0.98562628 0.41581109 1.0266941 0.97399998
-1.0127932 0.43176973 1.0660981 0.93799996
-1.0163045 0.44021744 1.0869566 0.9199999
-0.73001629 0.33034256 0.81566066 1.2260001
-0.73675489 0.33526489 0.82781452 1.2080001
-3.9678903 1.8577983 4.5871563 0.21799998
-0.18226333 0.22034821 0.54406965 1.8379999
0.54159445 0.35095319 0.8665511 1.154
0.99049127 0.32091919 0.79239303 1.262
-0.7887975 0.21068858 0.51387459 1.9460001
-0.78708643 0.21878335 0.53361791 1.8740001
-1.068787 0.30325443 0.73964494 1.352
-1.0650887 0.30325443 0.73964494 1.352
-0.67168051 0.21265562 0.51867223 1.9279999
-1.9384615 0.63076925 1.5384616 0.64999998
-1.9153847 0.63076925 1.5384616 0.64999998
-2.5851066 0.8723405 2.1276598 0.46999994
-0.62178826 0.21068858 0.51387459 1.9460001
-0.61921889 0.21068858 0.51387459 1.9460001
-1.0818181 0.37272725 0.90909088 1.1
-0.67464954 0.23948599 0.58411217 1.7119999
-0.72385204 0.26147959 0.6377551 1.568
-0.87890625 0.3203125 0.78125 1.28
-0.875 0.3203125 0.78125 1.28
-0.60926777 0.23455378 0.5720824 1.7479999
-0.94999999 0.37272725 0.90909088 1.1
-0.94545454 0.37272725 0.90909088 1.1
-0.98948371 0.39196938 0.95602292 1.046
-0.9970817 0.39883268 0.97276264 1.028
-1.1085973 0.46380094 1.1312218 0.88399994
-1.1029413 0.46380094 1.1312218 0.88399994
-1.0972852 0.46380094 1.1312218 0.88399994
-1.0489131 0.44565222 1.0869566 0.9199999
-1.0234542 0.43710023 1.0660981 0.93799996
-1.0181236 0.43710023 1.0660981 0.93799996
-1.0326087 0.44565222 1.0869566 0.9199999
-0.9884938 0.42887032 1.0460252 0.95599997
-1.0054349 0.44565222 1.0869566 0.9199999
-0.56421447 0.25561097 0.6234414 1.604
-0.74089402 0.33940396 0.82781452 1.2080001
-3.9678903 1.8807341 4.5871563 0.21799998
-3.9449544 1.8807341 4.5871563 0.21799998
-0.17894192 0.21265562 0.51867223 1.9279999
-0.18498369 0.22306855 0.54406965 1.8379999
-0.01798561 0.21068858 0.51387459 1.9460001
0.40290618 0.27080581 0.66050196 1.5140001
0.99445325 0.32488114 0.79239303 1.262
1.2148438 0.3203125 0.78125 1.28
-4.3370171 1.1464089 2.7624311 0.36199996
-0.78708643 0.22145143 0.53361791 1.8740001
-1.0650887 0.30695266 0.73964494 1.352
-1.1548012 0.34354302 0.82781452 1.2080001
-0.67168051 0.21524897 0.51867223 1.9279999
-0.66908717 0.21524897 0.51867223 1.9279999
-1.9161677 0.62125754 1.4970061 0.66799998
-1.9153847 0.63846153 1.5384616 0.64999998
-0.89163828 0.35409561 0.8532424 1.1719999
-0.88737208 0.35409561 0.8532424 1.1719999
-0.52862149 0.24240655 0.58411217 1.7119999
-0.64841497 0.29899135 0.72046107 1.388
-3.9678903 1.9036698 4.5871563 0.21799998
-0.3971487 0.21130347 0.50916499 1.9639999
-0.41077259 0.22578891 0.54406965 1.8379999
0.39960369 0.27410832 0.66050196 1.5140001
4.7477069 1.9036698 4.5871563 0.21799998
-1.2748344 0.34768209 0.82781452 1.2080001
-1.1589403 0.34768209 0.82781452 1.2080001
-1.1378466 0.34257749 0.81566066 1.2260001
-0.79839706 0.25893959 0.61652285 1.6219999
-1.5567284 0.55408973 1.3192613 0.75799996
-0.66004676 0.24532712 0.58411217 1.7119999
-5.4000001 2.0999999 5 0.2
-0.52601159 0.24277458 0.5780347 1.7299999
-0.52862149 0.24532712 0.58411217 1.7119999
-0.79606438 0.37567082 0.89445436 1.118
-3.9449544 1.9266057 4.5871563 0.21799998
-0.40339154 0.21582733 0.51387459 1.9460001
-0.40082219 0.21582733 0.51387459 1.9460001
-0.41349292 0.22850925 0.54406965 1.8379999
0.44977513 0.31484258 0.74962521 1.334
0.45352325 0.31484258 0.74962521 1.334
0.71016163 0.48498845 1.1547344 0.86600006
0.64076692 0.21190716 0.50454086 1.982
1.2148438 0.328125 0.78125 1.28
-4.3232045 1.1740333 2.7624311 0.36199996
-1.2665563 0.35182118 0.82781452 1.2080001
-0.79809731 0.22463004 0.52854127 1.8919998
-0.8240844 0.23584907 0.55493897 1.8019999
-0.77908218 0.22678761 0.53361791 1.8740001
-1.1093991 0.32742682 0.77041602 1.298
-1.0077248 0.29845506 0.7022472 1.424
-1.0255474 0.31021899 0.729927 1.37
-1.1506622 0.35182118 0.82781452 1.2080001
-1.1465231 0.35182118 0.82781452 1.2080001
-0.88294989 0.28755075 0.67658997 1.478
-0.79223186 0.2620222 0.61652285 1.6219999
-1.550132 0.56068605 1.3192613 0.75799996
-1.5435357 0.56068605 1.3192613 0.75799996
-0.61632872 0.22678761 0.53361791 1.8740001
-0.61366057 0.22678761 0.53361791 1.8740001
-0.61691815 0.22898708 0.53879315 1.8559998
-0.6560694 0.24566475 0.5780347 1.7299999
-0.65317923 0.24566475 0.5780347 1.7299999
-0.71428573 0.27104592 0.6377551 1.568
-0.89228296 0.34163988 0.80385852 1.244
-1.1344969 0.43634498 1.0266941 0.97399998
-1.1453975 0.44456071 1.0460252 0.95599997
-5.4000001 2.125 5 0.2
-5.375 2.125 5 0.2
-0.66834807 0.26796976 0.63051707 1.5859998
-0.66519552 0.26796976 0.63051707 1.5859998
-0.56311208 0.2312296 0.54406965 1.8379999
-0.56039172 0.2312296 0.54406965 1.8379999
-0.65629226 0.28755075 0.67658997 1.478
-0.60162097 0.26496258 0.6234414 1.604
-0.64952636 0.28755075 0.67658997 1.478
-0.67923188 0.30227596 0.71123755 1.406
-3.0032468 1.3798702 3.2467532 0.308
-0.5100897 0.23822869 0.56053811 1.784
-0.64481264 0.30619594 0.72046107 1.388
-0.78345072 0.37411973 0.88028169 1.136
-0.81792974 0.39279112 0.92421442 1.082
-0.41621327 0.2312296 0.54406965 1.8379999
-0.038461536 0.23351647 0.54945052 1.8200001
-0.035714284 0.23351647 0.54945052 1.8200001
0.70438796 0.49076211 1.1547344 0.86600006
2.3538961 1.3798702 3.2467532 0.308
0.64076692 0.21442987 0.50454086 1.982
0.64328963 0.21442987 0.50454086 1.982
1.2148438 0.33203125 0.78125 1.28
-7.9250002 2.1500001 5 0.2
-7.9000001 2.1500001 5 0.2
-4.3232045 1.1878453 2.7624311 0.36199996
-4.3093925 1.1878453 2.7624311 0.36199996
-1.2748344 0.35596025 0.82781452 1.2080001
-1.0479453 0.29452056 0.68493152 1.46
-0.82426554 0.23394994 0.54406965 1.8379999
-0.79809731 0.22727275 0.52854127 1.8919998
-0.81882483 0.23394994 0.54406965 1.8379999
-0.78272253 0.2251309 0.52356023 1.91
-0.84371459 0.2434881 0.5662514 1.766
-0.84088331 0.2434881 0.5662514 1.766
-0.82130969 0.23862375 0.55493897 1.8019999
-0.79471987 0.23168105 0.53879315 1.8559998
-0.79202592 0.23168105 0.53879315 1.8559998
-0.78175026 0.22945571 0.53361791 1.8740001
-0.77908218 0.22945571 0.53361791 1.8740001
-0.77641404 0.22945571 0.53361791 1.8740001
-0.77107787 0.22945571 0.53361791 1.8740001
-1.1093991 0.33127889 0.77041602 1.298
-0.88471031 0.26510483 0.61652285 1.6219999
-0.87195122 0.26219514 0.60975611 1.64
-0.86890244 0.26219514 0.60975611 1.64
-0.93791276 0.28401583 0.66050196 1.5140001
-0.89218163 0.27112234 0.63051707 1.5859998
-1.0255474 0.31386861 0.729927 1.37
-1.0182482 0.31386861 0.729927 1.37
-1.0145985 0.31386861 0.729927 1.37
-0.94178081 0.29452056 0.68493152 1.46
-1.0410335 0.32674775 0.75987846 1.316
-1.0372341 0.32674775 0.75987846 1.316
-1.1134105 0.35596025 0.82781452 1.2080001
-1.1092714 0.35596025 0.82781452 1.2080001
-1.1051323 0.35596025 0.82781452 1.2080001
-1.0966388 0.36134458 0.8403362 1.1899999
-0.99768877 0.33127889 0.77041602 1.298
-1.1048527 0.37261698 0.8665511 1.154
-5.6880736 1.9724772 4.5871563 0.21799998
-5.6651382 1.9724772 4.5871563 0.21799998
-0.64217764 0.22727275 0.52854127 1.8919998
-0.63953495 0.22727275 0.52854127 1.8919998
-0.6368922 0.22727275 0.52854127 1.8919998
-1.1782178 0.42574257 0.99009901 1.01
-1.550132 0.56728238 1.3192613 0.75799996
-0.62500006 0.23168105 0.53879315 1.8559998
-0.62230611 0.23168105 0.53879315 1.8559998
-0.61366057 0.22945571 0.53361791 1.8740001
-0.61691815 0.23168105 0.53879315 1.8559998
-0.63263041 0.23862375 0.55493897 1.8019999
-0.6560694 0.24855492 0.5780347 1.7299999
-0.65712619 0.25116822 0.58411217 1.7119999
-1.1344969 0.44147843 1.0266941 0.97399998
-1.1293634 0.44147843 1.0266941 0.97399998
-1.1453975 0.44979081 1.0460252 0.95599997
-5.4000001 2.1500001 5 0.2
-5.375 2.1500001 5 0.2
-0.65351421 0.26510483 0.61652285 1.6219999
-0.65043163 0.26510483 0.61652285 1.6219999
-0.53186017 0.22096607 0.51387459 1.9460001
-0.61097258 0.26807979 0.6234414 1.604
-0.60785538 0.26807979 0.6234414 1.604
-0.65629226 0.2909337 0.67658997 1.478
-0.60162097 0.26807979 0.6234414 1.604
-0.64952636 0.2909337 0.67658997 1.478
-0.67923188 0.30583215 0.71123755 1.406
-3.0357141 1.3961039 3.2467532 0.308
-3.0194805 1.3961039 3.2467532 0.308
-3.0032468 1.3961039 3.2467532 0.308
-0.50776917 0.23862375 0.55493897 1.8019999
-0.56109726 0.26807979 0.6234414 1.604
-0.79606438 0.38461536 0.89445436 1.118
-0.40715769 0.22302906 0.51867223 1.9279999
-0.038461536 0.23626372 0.54945052 1.8200001
0.45727137 0.32233885 0.74962521 1.334
0.3382664 0.22727275 0.52854127 1.8919998
0.64581227 0.21695258 0.50454086 1.982
1.2070312 0.3359375 0.78125 1.28
-7.9250002 2.175 5 0.2
-7.9000001 2.175 5 0.2
-1.0479453 0.2979452 0.68493152 1.46
-0.86956525 0.24885584 0.5720824 1.7479999
-0.82426554 0.2366703 0.54406965 1.8379999
-0.81610447 0.2366703 0.54406965 1.8379999
-0.91158539 0.26524392 0.60975611 1.64
-0.82130969 0.24139845 0.55493897 1.8019999
-0.79202592 0.23437501 0.53879315 1.8559998
-0.8498832 0.25408879 0.58411217 1.7119999
-0.88471031 0.26818743 0.61652285 1.6219999
-0.86890244 0.26524392 0.60975611 1.64
-0.89218163 0.27427492 0.63051707 1.5859998
-1.0355029 0.32174554 0.73964494 1.352
-0.9303112 0.29431665 0.67658997 1.478
-1.0932475 0.34967846 0.80385852 1.244
-0.96181554 0.31340057 0.72046107 1.388
-0.70437562 0.23212379 0.53361791 1.8740001
-1.0966388 0.36554626 0.8403362 1.1899999
-1.092437 0.36554626 0.8403362 1.1899999
-0.99768877 0.33513096 0.77041602 1.298
-1.0840337 0.36554626 0.8403362 1.1899999
-1.0964165 0.37116045 0.8532424 1.1719999
-1.0289389 0.34967846 0.80385852 1.244
-1.1005199 0.37694973 0.8665511 1.154
-5.6651382 1.9954129 4.5871563 0.21799998
-5.6422024 1.9954129 4.5871563 0.21799998
-0.64217764 0.22991545 0.52854127 1.8919998
-0.67825109 0.24383408 0.56053811 1.784
-0.67544842 0.24383408 0.56053811 1.784
-0.62500006 0.23437501 0.53879315 1.8559998
-0.62230611 0.23437501 0.53879315 1.8559998
-0.89630222 0.34967846 0.80385852 1.244
-1.1293634 0.44661191 1.0266941 0.97399998
-0.61271679 0.25144508 0.5780347 1.7299999
-0.56311208 0.2366703 0.54406965 1.8379999
-0.58805788 0.2623643 0.6031363 1.658
-0.64839572 0.29077539 0.66844916 1.4960001
-0.50776917 0.24139845 0.55493897 1.8019999
-0.48097256 0.22991545 0.52854127 1.8919998
-0.56109726 0.27119702 0.6234414 1.604
-2.4033151 1.2016575 2.7624311 0.36199996
-0.041208789 0.23901097 0.54945052 1.8200001
0.6986143 0.50230944 1.1547344 0.86600006
0.35838151 0.25144508 0.5780347 1.7299999
0.34683686 0.24139845 0.55493897 1.8019999
0.9861325 0.33513096 0.77041602 1.298
0.94207317 0.26524392 0.60975611 1.64
-7.9250002 2.2 5 0.2
-7.9000001 2.2 5 0.2
-0.78175026 0.23479187 0.53361791 1.8740001
-0.86890244 0.2682927 0.60975611 1.64
-0.87546247 0.27127007 0.61652285 1.6219999
-0.98862022 0.31294453 0.71123755 1.406
-0.93707711 0.29769957 0.67658997 1.478
-1.0932475 0.35369775 0.80385852 1.244
-1.1344539 0.36974794 0.8403362 1.1899999
-0.85140306 0.28061223 0.6377551 1.568
-0.69109952 0.2303665 0.52356023 1.91
-1.0053929 0.33898306 0.77041602 1.298
-0.87618399 0.29769957 0.67658997 1.478
-1.067227 0.36974794 0.8403362 1.1899999
-1.0961871 0.38128248 0.8665511 1.154
-5.6880736 2.0183487 4.5871563 0.21799998
-5.6651382 2.0183487 4.5871563 0.21799998
-5.6422024 2.0183487 4.5871563 0.21799998
-0.67544842 0.24663676 0.56053811 1.784
-1.0475352 0.38732395 0.88028169 1.136
-1.0599284 0.39355993 0.89445436 1.118
-0.62769401 0.23706898 0.53879315 1.8559998
-0.60305774 0.24915062 0.5662514 1.766
-0.60022646 0.24915062 0.5662514 1.766
-0.8609271 0.36423838 0.82781452 1.2080001
-0.52561367 0.23479187 0.53361791 1.8740001
-1.9247786 0.97345126 2.2123892 0.45200002
-2.389503 1.2154697 2.7624311 0.36199996
-2.3756907 1.2154697 2.7624311 0.36199996
-0.40456435 0.22821578 0.51867223 1.9279999
-0.37863073 0.22821578 0.51867223 1.9279999
-0.047225505 0.25974026 0.5903188 1.6939999
-0.032967031 0.24175823 0.54945052 1.8200001
0.68985856 0.51886797 1.1792454 0.84799993
0.69575477 0.51886797 1.1792454 0.84799993
0.69284064 0.50808311 1.1547344 0.86600006
0.35549134 0.25433525 0.5780347 1.7299999
0.34406215 0.24417315 0.55493897 1.8019999
0.9861325 0.33898306 0.77041602 1.298
-0.84088331 0.25198188 0.5662514 1.766
-1.3157895 0.41823307 0.93984962 1.064
-0.84451222 0.27134147 0.60975611 1.64
-0.70704371 0.23745997 0.53361791 1.8740001
-0.69109952 0.2329843 0.52356023 1.91
-1.0063392 0.35261491 0.79239303 1.262
-5.6880736 2.0412846 4.5871563 0.21799998
-5.6651382 2.0412846 4.5871563 0.21799998
-0.77419358 0.2870968 0.64516133 1.55
-0.80056179 0.3125 0.7022472 1.424
-1.1344969 0.45687887 1.0266941 0.97399998
-0.57650864 0.23976295 0.53879315 1.8559998
-0.57381469 0.23976295 0.53879315 1.8559998
-0.8609271 0.36837745 0.82781452 1.2080001
-0.55219775 0.24450548 0.54945052 1.8200001
-0.52356023 0.2329843 0.52356023 1.91
-0.51089215 0.23080914 0.51867223 1.9279999
-0.50570542 0.23080914 0.51867223 1.9279999
-0.51227319 0.23745997 0.53361791 1.8740001
-0.50960511 0.23745997 0.53361791 1.8740001
-0.46334013 0.22657841 0.50916499 1.9639999
-1.9247786 0.98451322 2.2123892 0.45200002
-1.9137167 0.98451322 2.2123892 0.45200002
0.72952223 0.37969285 0.8532424 1.1719999
0.86876154 0.41127542 0.92421442 1.082
0.97644383 0.33814591 0.75987846 1.316
0.98404258 0.33814591 0.75987846 1.316
-0.87572259 0.26011562 0.5780347 1.7299999
-0.91158539 0.27439025 0.60975611 1.64
-0.82943928 0.26285046 0.58411217 1.7119999
-0.84451222 0.27439025 0.60975611 1.64
-1.0811898 0.36173633 0.80385852 1.244
-0.70704371 0.24012806 0.53361791 1.8740001
-0.69109952 0.2356021 0.52356023 1.91
-0.88765603 0.31206658 0.69348127 1.442
-0.91498554 0.32420748 0.72046107 1.388
-0.8025099 0.29722589 0.66050196 1.5140001
-0.79590487 0.29722589 0.66050196 1.5140001
-0.79260236 0.29722589 0.66050196 1.5140001
-0.57650864 0.24245691 0.53879315 1.8559998
-0.50407332 0.22912425 0.50916499 1.9639999
-0.49898168 0.22912425 0.50916499 1.9639999
-0.51004231 0.23784357 0.52854127 1.8919998
-2.4033151 1.243094 2.7624311 0.36199996
-0.39311406 0.23124357 0.51387459 1.9460001
-0.3802672 0.23124357 0.51387459 1.9460001
0.35260117 0.26011562 0.5780347 1.7299999
0.34753364 0.25224215 0.56053811 1.784
0.69539255 0.38395908 0.8532424 1.1719999
0.72525603 0.38395908 0.8532424 1.1719999
0.98404258 0.34194529 0.75987846 1.316
-1.1023054 0.32780978 0.72046107 1.388
-0.8162716 0.24515088 0.53879315 1.8559998
-1.306391 0.42763159 0.93984962 1.064
-0.88765603 0.31553397 0.69348127 1.442
-0.88418859 0.31553397 0.69348127 1.442
-0.85704124 0.32361308 0.71123755 1.406
-0.84992886 0.32361308 0.71123755 1.406
-1.5270618 0.58634019 1.2886598 0.77599996
-0.74679941 0.32361308 0.71123755 1.406
-0.53141361 0.2382199 0.52356023 1.91
-0.59583861 0.28688526 0.63051707 1.5859998
-0.46334013 0.23167007 0.50916499 1.9639999
-1.1675463 0.60026389 1.3192613 0.75799996
-1.9358406 1.0066371 2.2123892 0.45200002
0.72098982 0.38822529 0.8532424 1.1719999
0.98404258 0.3457447 0.75987846 1.316
-1.1023054 0.33141211 0.72046107 1.388
-1.3016918 0.43233082 0.93984962 1.064
-1.2969924 0.43233082 0.93984962 1.064
-0.85778058 0.29336736 0.6377551 1.568
-0.74271297 0.25784752 0.56053811 1.784
-0.7399103 0.25784752 0.56053811 1.784
-0.76151127 0.27154666 0.5903188 1.6939999
-0.65043163 0.28360051 0.61652285 1.6219999
-0.55767137 0.25027204 0.54406965 1.8379999
-0.55495101 0.25027204 0.54406965 1.8379999
-0.59899122 0.29003784 0.63051707 1.5859998
-0.39825282 0.23638231 0.51387459 1.9460001
-0.3864108 0.23858923 0.51867223 1.9279999
-0.42664674 0.68862277 1.4970061 0.66799998
0.31860223 0.23638231 0.51387459 1.9460001
0.59541416 0.34023666 0.73964494 1.352
0.59911239 0.34023666 0.73964494 1.352
-1.2941178 0.39075634 0.8403362 1.1899999
-0.95074815 0.28990024 0.6234414 1.604
-0.75933397 0.2346115 0.50454086 1.982
-0.75681126 0.2346115 0.50454086 1.982
-0.75428861 0.2346115 0.50454086 1.982
-1.3049713 0.44455066 0.95602292 1.046
-1.0932475 0.3737942 0.80385852 1.244
-0.72869956 0.26065022 0.56053811 1.784
-1.0599284 0.41592127 0.89445436 1.118
-0.67602038 0.29655612 0.6377551 1.568
-0.55495101 0.25299239 0.54406965 1.8379999
-0.60214382 0.29319045 0.63051707 1.5859998
-1.1543536 0.61345649 1.3192613 0.75799996
-0.40805224 0.25299239 0.54406965 1.8379999
-0.43413177 0.6961078 1.4970061 0.66799998
-0.41916171 0.6961078 1.4970061 0.66799998
0.67551959 0.53695148 1.1547344 0.86600006
0.31313646 0.23676172 0.50916499 1.9639999
0.55478501 0.32246879 0.69348127 1.442
0.57254624 0.33072546 0.71123755 1.406
0.98784196 0.35334349 0.75987846 1.316
-0.76185668 0.2371342 0.50454086 1.982
-1.0662824 0.3386167 0.72046107 1.388
-1.0626801 0.3386167 0.72046107 1.388
-0.72309417 0.26345292 0.56053811 1.784
-0.72197056 0.26613817 0.5662514 1.766
-0.74675328 0.27744985 0.5903188 1.6939999
-1.0651408 0.41373238 0.88028169 1.136
-1.0599284 0.42039356 0.89445436 1.118
-0.60439557 0.25824174 0.54945052 1.8200001
-0.63842481 0.2804296 0.59665871 1.676
-0.65659684 0.28976575 0.61652285 1.6219999
-0.65351421 0.28976575 0.61652285 1.6219999
-0.56074768 0.27453271 0.58411217 1.7119999
-0.49838367 0.25323278 0.53879315 1.8559998
-1.1609499 0.62005281 1.3192613 0.75799996
-3.6440678 1.9915254 4.237288 0.236
-0.42664674 0.70359284 1.4970061 0.66799998
0.57879376 0.45719844 0.97276264 1.028
0.34473094 0.26345292 0.56053811 1.784
0.52884614 0.34763312 0.73964494 1.352
0.52509904 0.31043592 0.66050196 1.5140001
0.52840155 0.31043592 0.66050196 1.5140001
0.95252782 0.28976575 0.61652285 1.6219999
-1.4765458 0.50639659 1.0660981 0.93799996
-1.4712154 0.50639659 1.0660981 0.93799996
-1.4658849 0.50639659 1.0660981 0.93799996
-0.69640917 0.25843307 0.54406965 1.8379999
-0.71188343 0.26625562 0.56053811 1.784
-0.60714281 0.26098901 0.54945052 1.8200001
-0.56794608 0.2463693 0.51867223 1.9279999
-0.49697274 0.23965691 0.50454086 1.982
-1.1609499 0.62664914 1.3192613 0.75799996
1.4321607 1.1934673 2.5125628 0.398
0.57392997 0.46206227 0.97276264 1.028
0.34192824 0.26625562 0.56053811 1.784
0.34473094 0.26625562 0.56053811 1.784
0.50497866 0.33783785 0.71123755 1.406
0.49251869 0.29613465 0.6234414 1.604
0.51290327 0.30645162 0.64516133 1.55
0.57668328 0.29613465 0.6234414 1.604
-1.0047361 0.32476318 0.67658997 1.478
-0.66700613 0.24439919 0.50916499 1.9639999
-0.6644603 0.24439919 0.50916499 1.9639999
-0.7146861 0.26905829 0.56053811 1.784
-0.71913928 0.27180067 0.5662514 1.766
-1.0563381 0.42253521 0.88028169 1.136
-0.61263734 0.26373625 0.54945052 1.8200001
-0.57572615 0.24896267 0.51867223 1.9279999
-0.59933406 0.26637071 0.55493897 1.8019999
-0.52262938 0.25862071 0.53879315 1.8559998
-0.49568969 0.25862071 0.53879315 1.8559998
-0.3998912 0.26115343 0.54406965 1.8379999
1.419598 1.2060301 2.5125628 0.398
0.67551959 0.55427247 1.1547344 0.86600006
0.34610987 0.27459955 0.5720824 1.7479999
0.34897026 0.27459955 0.5720824 1.7479999
0.49850076 0.3598201 0.74962521 1.334
0.48170733 0.29268295 0.60975611 1.64
0.54309332 0.28335303 0.5903188 1.6939999
0.58877933 0.29593098 0.61652285 1.6219999
0.94944519 0.29593098 0.61652285 1.6219999
-1.0102739 0.3321918 0.68493152 1.46
-1.0068493 0.3321918 0.68493152 1.46
-1.4605544 0.5170576 1.0660981 0.93799996
-0.66032887 0.24922918 0.51387459 1.9460001
-0.69368881 0.26387379 0.54406965 1.8379999
-0.91605836 0.35401461 0.729927 1.37
-0.42165399 0.26387379 0.54406965 1.8379999
-0.40261155 0.26387379 0.54406965 1.8379999
1.4070351 1.2185929 2.5125628 0.398
1.419598 1.2185929 2.5125628 0.398
0.47910661 0.34942362 0.72046107 1.388
0.46340024 0.28630462 0.5903188 1.6939999
0.48025611 0.25880468 0.53361791 1.8740001
0.51289237 0.27186099 0.56053811 1.784
0.55490655 0.28329441 0.58411217 1.7119999
0.96350366 0.35401461 0.729927 1.37
-3.2172134 1.0040984 2.0491805 0.48799995
-3.2069676 1.0040984 2.0491805 0.48799995
-1.0034246 0.33561644 0.68493152 1.46
-0.86856008 0.32364595 0.66050196 1.5140001
-0.88834274 0.34410113 0.7022472 1.424
-0.78424656 0.33561644 0.68493152 1.46
-0.82116789 0.35766423 0.729927 1.37
-0.60989004 0.26923075 0.54945052 1.8200001
-0.60210878 0.27192008 0.55493897 1.8019999
-0.53811657 0.27466369 0.56053811 1.784
-0.42437431 0.26659414 0.54406965 1.8379999
-0.18226333 0.26659414 0.54406965 1.8379999
0.41614127 0.30895337 0.63051707 1.5859998
0.43820935 0.30895337 0.63051707 1.5859998
0.38187373 0.24949084 0.50916499 1.9639999
0.43285239 0.27192008 0.55493897 1.8019999
0.407332 0.24949084 0.50916499 1.9639999
0.41120079 0.24722502 0.50454086 1.982
0.43936276 0.25179854 0.51387459 1.9460001
0.43390515 0.24722502 0.50454086 1.982
0.44147325 0.24722502 0.50454086 1.982
0.45991775 0.25179854 0.51387459 1.9460001
0.5100897 0.27466369 0.56053811 1.784
0.51923072 0.26923075 0.54945052 1.8200001
0.72468793 0.33980581 0.69348127 1.442
0.96715325 0.35766423 0.729927 1.37
-3.1967216 1.0143443 2.0491805 0.48799995
-0.79545462 0.26162791 0.52854127 1.8919998
-6.4449544 2.2706423 4.5871563 0.21799998
-6.422019 2.2706423 4.5871563 0.21799998
-0.65775949 0.25436792 0.51387459 1.9460001
-0.91138327 0.35662824 0.72046107 1.388
-0.90778095 0.35662824 0.72046107 1.388
-0.83211678 0.36131388 0.729927 1.37
-0.82481754 0.36131388 0.729927 1.37
-0.56614351 0.27746636 0.56053811 1.784
-0.61035764 0.30517882 0.61652285 1.6219999
-1.0662651 0.59638554 1.2048193 0.82999998
-1.0837438 0.60960591 1.2315271 0.81199998
-3.0000002 1.7068967 3.448276 0.28999999
-0.42709467 0.26931447 0.54406965 1.8379999
-0.18498369 0.26931447 0.54406965 1.8379999
1.4447236 1.2437185 2.5125628 0.398
0.38665882 0.29220781 0.5903188 1.6939999
0.38696539 0.25203666 0.50916499 1.9639999
0.40961948 0.26162791 0.52854127 1.8919998
0.407332 0.25203666 0.50916499 1.9639999
0.454779 0.25436792 0.51387459 1.9460001
0.47952589 0.26670262 0.53879315 1.8559998
0.48760781 0.26670262 0.53879315 1.8559998
0.486911 0.25916231 0.52356023 1.91
0.51648349 0.27197802 0.54945052 1.8200001
0.96350366 0.36131388 0.729927 1.37
-3.2172134 1.0245903 2.0491805 0.48799995
-3.2069676 1.0245903 2.0491805 0.48799995
-0.79809731 0.26427063 0.52854127 1.8919998
-0.83805209 0.2831257 0.5662514 1.766
-6.4449544 2.2935781 4.5871563 0.21799998
-6.422019 2.2935781 4.5871563 0.21799998
-0.7622664 0.29205608 0.58411217 1.7119999
-0.82503557 0.35561877 0.71123755 1.406
-0.77739727 0.34246576 0.68493152 1.46
-0.58231711 0.30487806 0.60975611 1.64
-1.0662651 0.60240966 1.2048193 0.82999998
-2.9827588 1.724138 3.448276 0.28999999
-0.17985611 0.2569373 0.51387459 1.9460001
-0.18770403 0.27203482 0.54406965 1.8379999
-0.35911605 1.3812156 2.7624311 0.36199996
0.57392997 0.48638132 0.97276264 1.028
0.36434978 0.28026906 0.56053811 1.784
0.36825728 0.25933611 0.51867223 1.9279999
0.37344399 0.25933611 0.51867223 1.9279999
0.43895054 0.25227043 0.50454086 1.982
0.48890066 0.26427063 0.52854127 1.8919998
0.52472526 0.27472526 0.54945052 1.8200001
0.62424606 0.30156815 0.6031363 1.658
0.76458037 0.35561877 0.71123755 1.406
0.88826364 0.40192926 0.80385852 1.244
-3.2274592 1.0348362 2.0491805 0.48799995
-3.2172134 1.0348362 2.0491805 0.48799995
-0.815934 0.2774725 0.54945052 1.8200001
-0.83238953 0.28595695 0.5662514 1.766
-0.6977371 0.27209052 0.53879315 1.8559998
-0.69504315 0.27209052 0.53879315 1.8559998
-0.72654468 0.28890163 0.5720824 1.7479999
-0.82859176 0.35917497 0.71123755 1.406
-0.63937753 0.34167793 0.67658997 1.478
-1.060241 0.60843378 1.2048193 0.82999998
-3.0000002 1.7413794 3.448276 0.28999999
-2.9827588 1.7413794 3.448276 0.28999999
-0.34530389 1.3950278 2.7624311 0.36199996
0.57392997 0.49124512 0.97276264 1.028
0.39540815 0.32206634 0.6377551 1.568
0.4017857 0.32206634 0.6377551 1.568
0.34418356 0.26947704 0.53361791 1.8740001
0.34114054 0.25712833 0.50916499 1.9639999
0.3456105 0.25479314 0.50454086 1.982
0.45660949 0.25479314 0.50454086 1.982
0.50829875 0.26192948 0.51867223 1.9279999
0.58323896 0.28595695 0.5662514 1.766
0.7152406 0.33756682 0.66844916 1.4960001
0.8810069 0.28890163 0.5720824 1.7479999
-3.2172134 1.0450821 2.0491805 0.48799995
-0.8186813 0.28021976 0.54945052 1.8200001
-0.6977371 0.27478451 0.53879315 1.8559998
-0.6765328 0.26955605 0.52854127 1.8919998
-0.67124742 0.26955605 0.52854127 1.8919998
-0.82859176 0.36273116 0.71123755 1.406
-4.5762711 2.1610169 4.237288 0.236
-0.54679 0.27747551 0.54406965 1.8379999
-0.48097256 0.26955605 0.52854127 1.8919998
-1.0662651 0.61445785 1.2048193 0.82999998
-1.060241 0.61445785 1.2048193 0.82999998
-0.35911605 1.4088399 2.7624311 0.36199996
-0.34530389 1.4088399 2.7624311 0.36199996
0.56906617 0.49610895 0.97276264 1.028
0.57392997 0.49610895 0.97276264 1.028
0.34258211 0.2887882 0.5662514 1.766
0.34151545 0.27214512 0.53361791 1.8740001
0.34418356 0.27214512 0.53361791 1.8740001
0.50454086 0.25731584 0.50454086 1.982
0.55226296 0.27478451 0.53879315 1.8559998
0.66396511 0.31795511 0.6234414 1.604
0.75 0.34931508 0.68493152 1.46
0.92800528 0.33685601 0.66050196 1.5140001
-0.89728457 0.30401418 0.5903188 1.6939999
-0.83805209 0.29161948 0.5662514 1.766
-7.0500002 2.575 5 0.2
-0.75144511 0.29768786 0.5780347 1.7299999
-0.67389011 0.27219877 0.52854127 1.8919998
-0.48361525 0.27219877 0.52854127 1.8919998
-1.0662651 0.62048197 1.2048193 0.82999998
0.33851278 0.28579357 0.55493897 1.8019999
0.33135778 0.27747846 0.53879315 1.8559998
0.49445003 0.25983855 0.50454086 1.982
0.50454086 0.25983855 0.50454086 1.982
0.51934826 0.26221997 0.50916499 1.9639999
0.61915892 0.30081776 0.58411217 1.7119999
0.69515306 0.32844388 0.6377551 1.568
0.82967031 0.28296703 0.54945052 1.8200001
-0.7848838 0.27484146 0.52854127 1.8919998
-0.65775949 0.26721478 0.51387459 1.9460001
-0.67389011 0.27484146 0.52854127 1.8919998
-0.51245749 0.29445073 0.5662514 1.766
-1.0662651 0.62650603 1.2048193 0.82999998
-1.060241 0.62650603 1.2048193 0.82999998
-4.3249998 2.5999999 5 0.2
-4.3000002 2.5999999 5 0.2
-0.18498369 0.28291622 0.54406965 1.8379999
0.32596985 0.28017244 0.53879315 1.8559998
0.32866383 0.28017244 0.53879315 1.8559998
0.3557013 0.26236126 0.50454086 1.982
0.50829875 0.26970956 0.51867223 1.9279999
0.50958627 0.26236126 0.50454086 1.982
0.51680249 0.2647658 0.50916499 1.9639999
0.5854606 0.28856826 0.55493897 1.8019999
0.64737469 0.31026253 0.59665871 1.676
0.92470276 0.34346101 0.66050196 1.5140001
0.91073579 0.31363088 0.6031363 1.658
0.93292683 0.31707317 0.60975611 1.64
0.93597561 0.31707317 0.60975611 1.64
-0.81610447 0.28563657 0.54406965 1.8379999
-0.79016918 0.27748418 0.52854127 1.8919998
-0.7848838 0.27748418 0.52854127 1.8919998
-0.90320599 0.3236745 0.61652285 1.6219999
-0.75625682 0.28563657 0.54406965 1.8379999
-0.66390043 0.27230293 0.51867223 1.9279999
-0.69505489 0.28846151 0.54945052 1.8200001
-0.51348549 0.27230293 0.51867223 1.9279999
-4.3249998 2.625 5 0.2
-0.17894192 0.27230293 0.51867223 1.9279999
0.32283884 0.2801494 0.53361791 1.8740001
0.32866383 0.28286639 0.53879315 1.8559998
0.34683686 0.29134297 0.55493897 1.8019999
0.32984295 0.27486911 0.52356023 1.91
0.33507854 0.27486911 0.52356023 1.91
0.58268595 0.29134297 0.55493897 1.8019999
0.59655941 0.29134297 0.55493897 1.8019999
0.59933406 0.29134297 0.55493897 1.8019999
0.93430656 0.38321167 0.729927 1.37
0.90772015 0.31664655 0.6031363 1.658
0.85762334 0.2942825 0.56053811 1.784
-0.99543077 0.34595299 0.65274149 1.5320001
-0.81610447 0.2883569 0.54406965 1.8379999
-0.78142691 0.30011323 0.5662514 1.766
-0.6613071 0.27489629 0.51867223 1.9279999
-0.50829875 0.27489629 0.51867223 1.9279999
-0.512685 0.28012687 0.52854127 1.8919998
-0.51004231 0.28012687 0.52854127 1.8919998
-0.54295945 0.3162291 0.59665871 1.676
-0.53997612 0.3162291 0.59665871 1.676
-0.53699285 0.3162291 0.59665871 1.676
-4.3249998 2.6500001 5 0.2
-0.43516356 0.30957946 0.58411217 1.7119999
0.31750265 0.28281748 0.53361791 1.8740001
0.54712045 0.27748692 0.52356023 1.91
0.57097119 0.28281748 0.53361791 1.8740001
0.59655941 0.29411766 0.55493897 1.8019999
0.62853903 0.30011323 0.5662514 1.766
0.93065691 0.38686132 0.729927 1.37
0.96451616 0.34193552 0.64516133 1.55
0.97096783 0.34193552 0.64516133 1.55
0.85482061 0.2970852 0.56053811 1.784
-3.4734511 1.1836282 2.2123892 0.45200002
-3.4623892 1.1836282 2.2123892 0.45200002
-1.0744382 0.37570226 0.7022472 1.424
-0.91073579 0.32267791 0.6031363 1.658
-0.76053441 0.27492291 0.51387459 1.9460001
-0.75796503 0.27492291 0.51387459 1.9460001
-0.75897717 0.29107726 0.54406965 1.8379999
-0.66390043 0.27748963 0.51867223 1.9279999
-0.70054942 0.29395604 0.54945052 1.8200001
-0.512685 0.28276959 0.52854127 1.8919998
-0.53997612 0.31921241 0.59665871 1.676
-4.3249998 2.675 5 0.2
-0.17894192 0.27748963 0.51867223 1.9279999
-1.075 2.675 5 0.2
-1 2.675 5 0.2
0.26731163 0.27240327 0.50916499 1.9639999
0.30295315 0.27240327 0.50916499 1.9639999
0.31568229 0.27240327 0.50916499 1.9639999
0.57097119 0.2854856 0.53361791 1.8740001
0.62570781 0.30294451 0.5662514 1.766
0.93292683 0.32621953 0.60975611 1.64
-3.495575 1.1946902 2.2123892 0.45200002
-3.4623892 1.1946902 2.2123892 0.45200002
-0.98890334 0.35248041 0.65274149 1.5320001
-0.74419779 0.27245206 0.50454086 1.982
-0.91290331 0.34838712 0.64516133 1.55
-0.70329666 0.29670328 0.54945052 1.8200001
-0.53997612 0.32219571 0.59665871 1.676
-4.3249998 2.7 5 0.2
-0.40197098 0.280083 0.51867223 1.9279999
-0.44100469 0.31542057 0.58411217 1.7119999
-1.05 2.7 5 0.2
-1.025 2.7 5 0.2
-1 2.7 5 0.2
-0.97500002 2.7 5 0.2
0.31313646 0.2749491 0.50916499 1.9639999
0.59267247 0.2909483 0.53879315 1.8559998
-3.4623892 1.2057521 2.2123892 0.45200002
-0.91836733 0.34757653 0.6377551 1.568
-0.91935492 0.35161293 0.64516133 1.55
-0.80578518 0.32172376 0.5903188 1.6939999
-1.0505836 0.53015566 0.97276264 1.028
-0.58387101 0.35161293 0.64516133 1.55
-0.5806452 0.35161293 0.64516133 1.55
-0.43884483 0.30860701 0.5662514 1.766
1.6564417 1.6717792 3.0674846 0.32600001
1.6717792 1.6717792 3.0674846 0.32600001
0.55498981 0.27749491 0.50916499 1.9639999
0.58997852 0.29364225 0.53879315 1.8559998
-3.4734511 1.216814 2.2123892 0.45200002
-0.88905782 0.41793317 0.75987846 1.316
-1.0214008 0.53501946 0.97276264 1.028
-1.0019455 0.53501946 0.97276264 1.028
-0.90466928 0.53501946 0.97276264 1.028
-4.3249998 2.75 5 0.2
-0.44167608 0.31143826 0.5662514 1.766
1.6564417 1.6871165 3.0674846 0.32600001
0.30804482 0.28004074 0.50916499 1.9639999
0.98709685 0.35483873 0.64516133 1.55
3.7259614 1.3221153 2.403846 0.41600001
3.7499998 1.3221153 2.403846 0.41600001
-3.484513 1.2278761 2.2123892 0.45200002
-3.4734511 1.2278761 2.2123892 0.45200002
-0.75933397 0.28002018 0.50454086 1.982
-1.0446686 0.39985588 0.72046107 1.388
-0.78542775 0.37098929 0.66844916 1.4960001
-1.0603113 0.53988326 0.97276264 1.028
-1.040856 0.53988326 0.97276264 1.028
-0.56965762 0.32762694 0.5903188 1.6939999
-0.90466928 0.53988326 0.97276264 1.028
-0.91584158 0.54950494 0.99009901 1.01
-4.3249998 2.7750001 5 0.2
-4.3000002 2.7750001 5 0.2
-0.44450736 0.31426951 0.5662514 1.766
1.6411042 1.702454 3.0674846 0.32600001
3.7379806 1.3341346 2.403846 0.41600001
-0.83239907 0.31390134 0.56053811 1.784
-0.84382153 0.32036614 0.5720824 1.7479999
-0.93994772 0.36553523 0.65274149 1.5320001
-0.72774869 0.29319373 0.52356023 1.91
-0.78208554 0.37433153 0.66844916 1.4960001
-0.64544392 0.32710281 0.58411217 1.7119999
-0.56670606 0.33057854 0.5903188 1.6939999
-4.3249998 2.8 5 0.2
-4.3000002 2.8 5 0.2
-0.37512845 0.28776976 0.51387459 1.9460001
-0.22120787 0.39325842 0.7022472 1.424
3.7259614 1.3461537 2.403846 0.41600001
-3.4513271 1.2499999 2.2123892 0.45200002
-0.83239907 0.31670403 0.56053811 1.784
-1.0518732 0.4070605 0.72046107 1.388
-1.0482708 0.4070605 0.72046107 1.388
-0.65068495 0.38698632 0.68493152 1.46
-0.64726031 0.38698632 0.68493152 1.46
-0.66011238 0.39676967 0.7022472 1.424
-0.89494163 0.54961091 0.97276264 1.028
-0.61569685 0.38227332 0.67658997 1.478
-0.57061797 0.35624215 0.63051707 1.5859998
-0.5741936 0.36451614 0.64516133 1.55
-4.3249998 2.825 5 0.2
-4.3000002 2.825 5 0.2
-0.20887728 0.36879894 0.65274149 1.5320001
0.31059065 0.28767821 0.50916499 1.9639999
-1.0554755 0.4106628 0.72046107 1.388
-1.0446686 0.4106628 0.72046107 1.388
-0.78542775 0.38101602 0.66844916 1.4960001
-0.58932352 0.30126852 0.52854127 1.8919998
-0.51445091 0.32947978 0.5780347 1.7299999
-4.3000002 2.8499999 5 0.2
-0.19817074 0.34756097 0.60975611 1.64
0.4609375 0.4453125 0.78125 1.28
0.6373626 0.31318679 0.54945052 1.8200001
6.7750001 2.8499999 5 0.2
-0.70477247 0.31908992 0.55493897 1.8019999
-1.1089866 0.54971319 0.95602292 1.046
-0.56020945 0.30104712 0.52356023 1.91
-0.57377052 0.36254731 0.63051707 1.5859998
-0.56109726 0.35847881 0.6234414 1.604
-0.51734108 0.33236995 0.5780347 1.7299999
-0.39054468 0.2954779 0.51387459 1.9460001
-0.38797531 0.2954779 0.51387459 1.9460001
-0.19075145 0.33236995 0.5780347 1.7299999
0.4609375 0.44921875 0.78125 1.28
0.63461536 0.31593406 0.54945052 1.8200001
-4.3093925 1.60221 2.7624311 0.36199996
-0.74847251 0.29531568 0.50916499 1.9639999
-0.94973886 0.37859008 0.65274149 1.5320001
-0.70754719 0.3218646 0.55493897 1.8019999
-0.70477247 0.3218646 0.55493897 1.8019999
-1.0622867 0.49488059 0.8532424 1.1719999
-0.63577592 0.31250003 0.53879315 1.8559998
-0.73770499 0.36569989 0.63051707 1.5859998
-1.1858317 0.59548253 1.0266941 0.97399998
-0.59196621 0.30655393 0.52854127 1.8919998
-0.57572615 0.30082989 0.51867223 1.9279999
-0.57313281 0.30082989 0.51867223 1.9279999
-0.56282723 0.30366492 0.52356023 1.91
-0.52023125 0.33526012 0.5780347 1.7299999
-0.38797531 0.29804727 0.51387459 1.9460001
-0.19364162 0.33526012 0.5780347 1.7299999
0.94451374 0.36159602 0.6234414 1.604
0.83242655 0.3155604 0.54406965 1.8379999
-4.3370171 1.6160222 2.7624311 0.36199996
-4.3232045 1.6160222 2.7624311 0.36199996
-0.75356418 0.29786152 0.50916499 1.9639999
-0.66191447 0.29786152 0.50916499 1.9639999
-0.8035714 0.37308672 0.6377551 1.568
-0.66534537 0.33125708 0.5662514 1.766
-0.66933644 0.33466822 0.5720824 1.7479999
-1.2313433 0.62366736 1.0660981 0.93799996
-1.2260128 0.62366736 1.0660981 0.93799996
-0.58668083 0.30919665 0.52854127 1.8919998
-0.57068062 0.30628273 0.52356023 1.91
-0.56544507 0.30628273 0.52356023 1.91
-0.56020945 0.30628273 0.52356023 1.91
-1.5146581 0.9527688 1.6286646 0.61399996
-0.57397956 0.37308672 0.6377551 1.568
-0.39460286 0.29786152 0.50916499 1.9639999
-0.18498369 0.31828076 0.54406965 1.8379999
-0.013469828 0.31519398 0.53879315 1.8559998
0.31363088 0.35283473 0.6031363 1.658
-4.3093925 1.6298344 2.7624311 0.36199996
-0.75356418 0.30040735 0.50916499 1.9639999
-0.77167022 0.31183934 0.52854127 1.8919998
-0.75471699 0.32741401 0.55493897 1.8019999
-0.73121387 0.34104046 0.5780347 1.7299999
-0.67505723 0.33752862 0.5720824 1.7479999
-0.67219681 0.33752862 0.5720824 1.7479999
-1.2313433 0.62899786 1.0660981 0.93799996
-0.61538458 0.3241758 0.54945052 1.8200001
-0.58932352 0.31183934 0.52854127 1.8919998
-0.56282723 0.30890054 0.52356023 1.91
-0.53154206 0.34462619 0.58411217 1.7119999
-3.6652541 2.5 4.237288 0.236
-0.017523365 0.34462619 0.58411217 1.7119999
0.27478451 0.31788796 0.53879315 1.8559998
0.93316525 0.37200508 0.63051707 1.5859998
0.94139653 0.36783043 0.6234414 1.604
-0.77431297 0.31448206 0.52854127 1.8919998
-0.74675328 0.35123968 0.5903188 1.6939999
-0.66817665 0.33691958 0.5662514 1.766
-1.2313433 0.63432837 1.0660981 0.93799996
-1.2206823 0.63432837 1.0660981 0.93799996
-1.5065148 0.96905547 1.6286646 0.61399996
-0.58035713 0.37946427 0.6377551 1.568
-0.52570093 0.34754673 0.58411217 1.7119999
-3.6652541 2.5211864 4.237288 0.236
-0.020443926 0.34754673 0.58411217 1.7119999
0.30759951 0.3588661 0.6031363 1.658
0.92686009 0.37515765 0.63051707 1.5859998
-3.4254806 1.4423076 2.403846 0.41600001
-0.73699427 0.34682083 0.5780347 1.7299999
-0.66251415 0.33975083 0.5662514 1.766
-1.1858317 0.61601645 1.0266941 0.97399998
-1.1806982 0.61601645 1.0266941 0.97399998
-1.5065148 0.97719878 1.6286646 0.61399996
-0.52278042 0.35046729 0.58411217 1.7119999
-3.6864405 2.5423727 4.237288 0.236
-3.6652541 2.5423727 4.237288 0.236
0.26931447 0.32644179 0.54406965 1.8379999
0.31120333 0.31120333 0.51867223 1.9279999
0.30776992 0.30272451 0.50454086 1.982
0.31029263 0.30272451 0.50454086 1.982
6.8000002 3 5 0.2
-3.4623892 1.3384955 2.2123892 0.45200002
-3.4374998 1.4543269 2.403846 0.41600001
-5.5118108 2.3818896 3.9370077 0.25400001
-5.8262711 2.5635593 4.237288 0.236
-5.8050847 2.5635593 4.237288 0.236
-0.74675328 0.35714287 0.5903188 1.6939999
-0.80548126 0.40441173 0.66844916 1.4960001
-0.67505723 0.34610987 0.5720824 1.7479999
-0.67219681 0.34610984 0.5720824 1.7479999
-0.66933638 0.34610984 0.5720824 1.7479999
-1.1643145 0.60987902 1.0080645 0.99199998
-4.7669492 2.5635593 4.237288 0.236
-1.5065148 0.98534209 1.6286646 0.61399996
-0.21989174 0.40933692 0.67658997 1.478
0.25130892 0.31675392 0.52356023 1.91
0.26923075 0.33241758 0.54945052 1.8200001
0.31639007 0.3137967 0.51867223 1.9279999
6.8000002 3.0250001 5 0.2
6.8249998 3.0250001 5 0.2
0.83795786 0.33573809 0.55493897 1.8019999
-3.4623892 1.3495574 2.2123892 0.45200002
-3.4513271 1.3495574 2.2123892 0.45200002
-5.4724407 2.4015746 3.9370077 0.25400001
-5.7838984 2.5847456 4.237288 0.236
-6.6750002 3.05 5 0.2
-0.67219681 0.34897026 0.5720824 1.7479999
-0.66933644 0.34897026 0.5720824 1.7479999
-1.1435643 0.60396039 0.99009901 1.01
-1.1386138 0.60396039 0.99009901 1.01
-0.21989174 0.41271988 0.67658997 1.478
0.24869111 0.31937173 0.52356023 1.91
0.31639007 0.31639007 0.51867223 1.9279999
0.31533805 0.30776992 0.50454086 1.982
6.8249998 3.05 5 0.2
0.83518314 0.33851278 0.55493897 1.8019999
-3.4623892 1.3606194 2.2123892 0.45200002
-3.4513271 1.3606194 2.2123892 0.45200002
-5.4921255 2.4212596 3.9370077 0.25400001
-5.8050847 2.6059322 4.237288 0.236
-0.88483149 0.43188202 0.7022472 1.424
-0.79879677 0.41109625 0.66844916 1.4960001
-0.6520533 0.34128746 0.55493897 1.8019999
-1.1235409 0.59824902 0.97276264 1.028
