# .PCD v0.7 - Point Cloud Data file format
VERSION 0.7
FIELDS x y z intensity
SIZE 4 4 4 4
TYPE F F F F
COUNT 1 1 1 1
WIDTH 1143
HEIGHT 1
VIEWPOINT 0 0 0 1 0 0 0
POINTS 1143
DATA ascii
-2.398524 -0.14760149 1.8450185 0.542
-2.3892989 -0.14760149 1.8450185 0.542
-2.2231834 -0.1384083 1.7301037 0.57800001
-2.2145329 -0.1384083 1.7301037 0.57800001
-2.2058823 -0.1384083 1.7301037 0.57800001
-0.71133417 -0.047225505 0.5903188 1.6939999
-1.851266 -0.12658229 1.5822786 0.63199997
-0.85082459 -0.059970018 0.74962521 1.334
-1.0396039 -0.07920792 0.99009901 1.01
-1.0346534 -0.07920792 0.99009901 1.01
-1.0049505 -0.07920792 0.99009901 1.01
-1 -0.07920792 0.99009901 1.01
-0.93515038 -0.075187966 0.93984962 1.064
-0.97278225 -0.080645159 1.0080645 0.99199998
-0.87875938 -0.075187966 0.93984962 1.064
-0.32142857 -0.043956041 0.54945052 1.8200001
-0.3155604 -0.043525573 0.54406965 1.8379999
-0.48514852 -0.07920792 0.99009901 1.01
-0.17414404 -0.047225505 0.5903188 1.6939999
-0.17119245 -0.047225505 0.5903188 1.6939999
0.8641305 -0.086956531 1.0869566 0.9199999
0.6394453 -0.061633281 0.77041602 1.298
0.75500768 -0.061633281 0.77041602 1.298
-1.4181818 -0.068181813 0.90909088 1.1
-1.3685151 -0.067084074 0.89445436 1.118
-1.3640429 -0.067084074 0.89445436 1.118
-2.442997 -0.12214985 1.6286646 0.61399996
-2.2538462 -0.11538462 1.5384616 0.64999998
-1.2564991 -0.064991333 0.8665511 1.154
-1.2521664 -0.064991333 0.8665511 1.154
-1.2478336 -0.064991333 0.8665511 1.154
-2.2389243 -0.1186709 1.5822786 0.63199997
-2.296417 -0.12214985 1.6286646 0.61399996
-2.2902684 -0.12583892 1.6778523 0.59600002
-1.8591774 -0.1186709 1.5822786 0.63199997
-1.851266 -0.1186709 1.5822786 0.63199997
-1.0120147 -0.069316082 0.92421442 1.082
-0.93154246 -0.064991333 0.8665511 1.154
-0.93515038 -0.070488721 0.93984962 1.064
-0.96039605 -0.074257426 0.99009901 1.01
-0.90344167 -0.07170172 0.95602292 1.046
-0.87875938 -0.070488721 0.93984962 1.064
-0.7508533 -0.063993178 0.8532424 1.1719999
-0.70214665 -0.067084074 0.89445436 1.118
-0.69320214 -0.067084074 0.89445436 1.118
-0.44160584 -0.054744527 0.729927 1.37
-0.3279148 -0.042040359 0.56053811 1.784
-0.3186813 -0.041208789 0.54945052 1.8200001
-0.37921348 -0.052668542 0.7022472 1.424
-0.70270276 -0.10135137 1.3513515 0.73999989
-0.4717899 -0.072957195 0.97276264 1.028
-0.25053883 -0.040409487 0.53879315 1.8559998
-0.18495685 -0.046239212 0.61652285 1.6219999
0.85326093 -0.081521749 1.0869566 0.9199999
0.8641305 -0.081521749 1.0869566 0.9199999
0.6640625 -0.05859375 0.78125 1.28
0.71808517 -0.056990884 0.75987846 1.316
0.75500768 -0.057781201 0.77041602 1.298
0.92857152 -0.063025214 0.8403362 1.1899999
0.93247586 -0.06028939 0.80385852 1.244
-2.4592836 -0.11400652 1.6286646 0.61399996
-2.2389243 -0.1107595 1.5822786 0.63199997
-2.2310128 -0.1107595 1.5822786 0.63199997
-2.4048443 -0.12110726 1.7301037 0.57800001
-2.2986577 -0.11744966 1.6778523 0.59600002
-2.2231271 -0.11400652 1.6286646 0.61399996
-2.4354243 -0.1291513 1.8450185 0.542
-2.1009774 -0.11400652 1.6286646 0.61399996
-2.0846908 -0.11400652 1.6286646 0.61399996
-0.83561647 -0.047945205 0.68493152 1.46
-0.76292562 -0.044136196 0.63051707 1.5859998
-0.70838255 -0.041322317 0.5903188 1.6939999
-1.8829116 -0.1107595 1.5822786 0.63199997
-1.8670888 -0.1107595 1.5822786 0.63199997
-1.851266 -0.1107595 1.5822786 0.63199997
-1.0707457 -0.066921607 0.95602292 1.046
-0.93154246 -0.060658578 0.8665511 1.154
-1.0049505 -0.069306932 0.99009901 1.01
-0.97029704 -0.069306932 0.99009901 1.01
-0.96534652 -0.069306932 0.99009901 1.01
-0.96039605 -0.069306932 0.99009901 1.01
-0.9342916 -0.071868584 1.0266941 0.97399998
-0.69320214 -0.062611803 0.89445436 1.118
-0.39187646 -0.040045768 0.5720824 1.7479999
-0.40853658 -0.042682927 0.60975611 1.64
-0.34961155 -0.038845729 0.55493897 1.8019999
-0.3279148 -0.039237667 0.56053811 1.784
-0.37921348 -0.049157303 0.7022472 1.424
-0.3932119 -0.057947017 0.82781452 1.2080001
-0.18163471 -0.035317861 0.50454086 1.982
-0.1967742 -0.045161292 0.64516133 1.55
0.86867857 -0.057096247 0.81566066 1.2260001
0.91761822 -0.057096247 0.81566066 1.2260001
0.93247586 -0.056270096 0.80385852 1.244
-1.0360962 -0.043449197 0.66844916 1.4960001
-2.4592836 -0.1058632 1.6286646 0.61399996
-0.88962603 -0.03920386 0.6031363 1.658
-2.2312706 -0.1058632 1.6286646 0.61399996
-2.1254072 -0.1058632 1.6286646 0.61399996
-2.117264 -0.1058632 1.6286646 0.61399996
-2.0846908 -0.1058632 1.6286646 0.61399996
-0.71773219 -0.03920386 0.6031363 1.658
-0.72704083 -0.04145408 0.6377551 1.568
-1.0573308 -0.061090223 0.93984962 1.064
-0.98837209 -0.058139533 0.89445436 1.118
-1.0120147 -0.060073938 0.92421442 1.082
-0.93154246 -0.056325823 0.8665511 1.154
-0.93470478 -0.058139533 0.89445436 1.118
-0.94090903 -0.059090909 0.90909088 1.1
-0.93807763 -0.060073938 0.92421442 1.082
-0.96534652 -0.064356439 0.99009901 1.01
-0.79351544 -0.055460755 0.8532424 1.1719999
-0.73675489 -0.053807944 0.82781452 1.2080001
-0.59854013 -0.047445256 0.729927 1.37
-0.6802426 -0.056325823 0.8665511 1.154
-0.75604838 -0.065524191 1.0080645 0.99199998
-0.42348132 -0.037967291 0.58411217 1.7119999
-0.73744774 -0.067991637 1.0460252 0.95599997
-0.35238624 -0.036071032 0.55493897 1.8019999
-0.35673839 -0.036806341 0.5662514 1.766
-0.44096729 -0.046230439 0.71123755 1.406
-0.33408833 -0.036806341 0.5662514 1.766
-0.33125708 -0.036806341 0.5662514 1.766
-0.28825432 -0.035021555 0.53879315 1.8559998
-0.71329647 -0.090027712 1.3850417 0.72199994
-0.70637125 -0.090027712 1.3850417 0.72199994
-0.4766537 -0.063229568 0.97276264 1.028
-0.24784485 -0.035021555 0.53879315 1.8559998
-0.22657841 -0.033095725 0.50916499 1.9639999
-0.21312584 -0.043978348 0.67658997 1.478
-0.20974289 -0.043978348 0.67658997 1.478
0.85869575 -0.070652179 1.0869566 0.9199999
0.69896448 -0.04807692 0.73964494 1.352
0.92436981 -0.054621853 0.8403362 1.1899999
0.89144218 -0.051505547 0.79239303 1.262
0.93247586 -0.052250803 0.80385852 1.244
-2.4230769 -0.092307694 1.5384616 0.64999998
-1.0360962 -0.040106948 0.66844916 1.4960001
-1.1953125 -0.046875 0.78125 1.28
-2.4267104 -0.097719878 1.6286646 0.61399996
-0.89565742 -0.036188178 0.6031363 1.658
-0.88962603 -0.036188178 0.6031363 1.658
-1.4681726 -0.061601643 1.0266941 0.97399998
-2.1009774 -0.097719878 1.6286646 0.61399996
-1.9778483 -0.094936714 1.5822786 0.63199997
-0.76607823 -0.037831023 0.63051707 1.5859998
-0.72677922 -0.036188178 0.6031363 1.658
-0.90870315 -0.051194545 0.8532424 1.1719999
-0.90443695 -0.051194545 0.8532424 1.1719999
-0.93470478 -0.053667262 0.89445436 1.118
-0.95330739 -0.058365759 0.97276264 1.028
-0.94844359 -0.058365759 0.97276264 1.028
-0.79411769 -0.050420173 0.8403362 1.1899999
-0.70168072 -0.050420173 0.8403362 1.1899999
-0.59854013 -0.043795619 0.729927 1.37
-0.70661896 -0.053667262 0.89445436 1.118
-0.42640188 -0.03504673 0.58411217 1.7119999
-0.35673839 -0.033975083 0.5662514 1.766
-0.35390711 -0.033975083 0.5662514 1.766
-0.44525546 -0.043795619 0.729927 1.37
-0.34462619 -0.03504673 0.58411217 1.7119999
-0.28556037 -0.032327589 0.53879315 1.8559998
-0.69594604 -0.081081092 1.3513515 0.73999989
-0.25053883 -0.032327589 0.53879315 1.8559998
-0.22657841 -0.030549899 0.50916499 1.9639999
-0.179112 -0.030272452 0.50454086 1.982
-0.22759601 -0.042674255 0.71123755 1.406
0.69526625 -0.044378698 0.73964494 1.352
0.8118971 -0.048231512 0.80385852 1.244
0.83201265 -0.047543582 0.79239303 1.262
0.90523881 -0.046224963 0.77041602 1.298
0.94690967 -0.047543582 0.79239303 1.262
-2.4307692 -0.084615387 1.5384616 0.64999998
-1.2070312 -0.04296875 0.78125 1.28
-1.203125 -0.04296875 0.78125 1.28
-1.1914062 -0.04296875 0.78125 1.28
-1.8865436 -0.072559372 1.3192613 0.75799996
-0.68363845 -0.031464532 0.5720824 1.7479999
-0.9973166 -0.049194992 0.89445436 1.118
-0.98389977 -0.049194992 0.89445436 1.118
-0.91296935 -0.046928331 0.8532424 1.1719999
-0.90017074 -0.046928331 0.8532424 1.1719999
-0.9391771 -0.049194992 0.89445436 1.118
-0.88821489 -0.04766031 0.8665511 1.154
-0.85714293 -0.046218492 0.8403362 1.1899999
-0.88028169 -0.048415493 0.88028169 1.136
-0.87147886 -0.048415493 0.88028169 1.136
-0.91635334 -0.05169173 0.93984962 1.064
-0.78571433 -0.046218492 0.8403362 1.1899999
-0.70522982 -0.043581616 0.79239303 1.262
-0.69730586 -0.043581616 0.79239303 1.262
-0.70588243 -0.046218492 0.8403362 1.1899999
-0.70168072 -0.046218492 0.8403362 1.1899999
-0.61020708 -0.040680472 0.73964494 1.352
-0.70661896 -0.049194992 0.89445436 1.118
-0.71164513 -0.050831795 0.92421442 1.082
-0.42640188 -0.03212617 0.58411217 1.7119999
-0.37087911 -0.030219778 0.54945052 1.8200001
-0.36327231 -0.031464532 0.5720824 1.7479999
-0.36041191 -0.031464532 0.5720824 1.7479999
-0.43948126 -0.039625358 0.72046107 1.388
-0.28556037 -0.029633623 0.53879315 1.8559998
-0.24546424 -0.029348984 0.53361791 1.8740001
-0.21695258 -0.027749747 0.50454086 1.982
-0.24362819 -0.041229386 0.74962521 1.334
0.77116936 -0.055443548 1.0080645 0.99199998
0.85106385 -0.041793317 0.75987846 1.316
0.91521394 -0.043581616 0.79239303 1.262
0.90523881 -0.042372882 0.77041602 1.298
-2.4307692 -0.07692308 1.5384616 0.64999998
-2.4153848 -0.07692308 1.5384616 0.64999998
-1.1992188 -0.0390625 0.78125 1.28
-1.8799474 -0.065963067 1.3192613 0.75799996
-1.8205806 -0.065963067 1.3192613 0.75799996
-0.82534248 -0.034246575 0.68493152 1.46
-0.99031687 -0.044014085 0.88028169 1.136
-0.97495526 -0.044722717 0.89445436 1.118
-0.88990062 -0.041390724 0.82781452 1.2080001
-0.90443695 -0.042662121 0.8532424 1.1719999
-0.84850991 -0.041390724 0.82781452 1.2080001
-0.84437078 -0.041390724 0.82781452 1.2080001
-0.78228474 -0.041390724 0.82781452 1.2080001
-0.65729487 -0.037993923 0.75987846 1.316
-0.69324088 -0.043327555 0.8665511 1.154
-0.43516356 -0.029205609 0.58411217 1.7119999
-0.36538458 -0.027472526 0.54945052 1.8200001
-0.43948126 -0.036023054 0.72046107 1.388
-0.22883296 -0.02860412 0.5720824 1.7479999
-0.18163471 -0.025227044 0.50454086 1.982
0.76612902 -0.050403226 1.0080645 0.99199998
0.77620965 -0.050403226 1.0080645 0.99199998
0.64255619 -0.035112359 0.7022472 1.424
0.79407299 -0.037993923 0.75987846 1.316
0.83958024 -0.03748126 0.74962521 1.334
-1.1094891 -0.032846715 0.729927 1.37
-1.9932435 -0.060810819 1.3513515 0.73999989
-1.9797299 -0.060810819 1.3513515 0.73999989
-1.8621135 -0.05798969 1.2886598 0.77599996
-1.8556701 -0.05798969 1.2886598 0.77599996
-1.8073049 -0.056675065 1.2594459 0.79399997
-1.8363402 -0.05798969 1.2886598 0.77599996
-1.7487684 -0.055418719 1.2315271 0.81199998
-1.7191436 -0.056675065 1.2594459 0.79399997
-1.3083657 -0.043774318 0.97276264 1.028
-1.2986381 -0.043774318 0.97276264 1.028
-1.2715105 -0.043021031 0.95602292 1.046
-1.2571701 -0.043021031 0.95602292 1.046
-1.1284046 -0.043774318 0.97276264 1.028
-0.90573013 -0.041589648 0.92421442 1.082
-0.74484944 -0.035657685 0.79239303 1.262
-0.74088746 -0.035657685 0.79239303 1.262
-0.4119955 -0.025224214 0.56053811 1.784
-0.75471705 -0.053066041 1.1792454 0.84799993
-0.44160584 -0.032846715 0.729927 1.37
-0.37447989 -0.031206656 0.69348127 1.442
-0.80000001 -0.069230773 1.5384616 0.64999998
-0.26065022 -0.025224214 0.56053811 1.784
-0.24279615 -0.024012806 0.53361791 1.8740001
-0.21947527 -0.022704339 0.50454086 1.982
-0.23169337 -0.025743708 0.5720824 1.7479999
-0.11456212 -0.022912424 0.50916499 1.9639999
0.79407299 -0.034194529 0.75987846 1.316
-1.084294 -0.028818443 0.72046107 1.388
-2.0135138 -0.054054059 1.3513515 0.73999989
-2.0000002 -0.054054059 1.3513515 0.73999989
-1.9932435 -0.054054059 1.3513515 0.73999989
-1.9864867 -0.054054059 1.3513515 0.73999989
-1.9797299 -0.054054059 1.3513515 0.73999989
-1.875 -0.051546391 1.2886598 0.77599996
-1.8621135 -0.051546391 1.2886598 0.77599996
-1.756927 -0.050377835 1.2594459 0.79399997
-1.7380353 -0.050377835 1.2594459 0.79399997
-1.7317381 -0.050377835 1.2594459 0.79399997
-1.6952507 -0.052770451 1.3192613 0.75799996
-1.6172681 -0.051546391 1.2886598 0.77599996
-0.93277317 -0.033613447 0.8403362 1.1899999
-0.8046875 -0.03125 0.78125 1.28
-0.80078125 -0.03125 0.78125 1.28
-0.69884723 -0.028818443 0.72046107 1.388
-0.68634421 -0.028449502 0.71123755 1.406
-0.734375 -0.03125 0.78125 1.28
-0.63503647 -0.02919708 0.729927 1.37
-0.37447989 -0.027739251 0.69348127 1.442
-0.80000001 -0.061538462 1.5384616 0.64999998
-0.18329939 -0.0203666 0.50916499 1.9639999
-0.11710795 -0.0203666 0.50916499 1.9639999
-0.11456212 -0.0203666 0.50916499 1.9639999
0.60893095 -0.027063599 0.67658997 1.478
0.72602743 -0.02739726 0.68493152 1.46
0.7558946 -0.027739251 0.69348127 1.442
0.83583212 -0.029985009 0.74962521 1.334
-1.0987031 -0.025216138 0.72046107 1.388
-1.0878962 -0.025216138 0.72046107 1.388
-1.9932435 -0.047297303 1.3513515 0.73999989
-1.8621135 -0.045103092 1.2886598 0.77599996
-1.8136021 -0.044080608 1.2594459 0.79399997
-1.8073049 -0.044080608 1.2594459 0.79399997
-1.7549261 -0.043103449 1.2315271 0.81199998
-1.7487684 -0.043103449 1.2315271 0.81199998
-1.7695215 -0.044080608 1.2594459 0.79399997
-1.7632242 -0.044080608 1.2594459 0.79399997
-1.2810707 -0.033460803 0.95602292 1.046
-1.6623712 -0.045103092 1.2886598 0.77599996
-3.8650305 -0.10736196 3.0674846 0.32600001
-1.1281071 -0.033460803 0.95602292 1.046
-0.90032154 -0.028135048 0.80385852 1.244
-0.80584711 -0.026236882 0.74962521 1.334
-0.80209899 -0.026236882 0.74962521 1.334
-0.7935285 -0.02696456 0.77041602 1.298
-0.78967643 -0.02696456 0.77041602 1.298
-0.71428573 -0.026595745 0.75987846 1.316
-0.71048635 -0.026595745 0.75987846 1.316
-0.63300145 -0.024893314 0.71123755 1.406
-0.62680113 -0.025216138 0.72046107 1.388
-0.62319881 -0.025216138 0.72046107 1.388
-0.65273041 -0.029863484 0.8532424 1.1719999
-0.6484642 -0.029863484 0.8532424 1.1719999
-0.4204036 -0.019618833 0.56053811 1.784
-0.40659338 -0.019230768 0.54945052 1.8200001
-0.39445049 -0.019042438 0.54406965 1.8379999
-0.40358743 -0.019618833 0.56053811 1.784
-0.76061326 -0.041273586 1.1792454 0.84799993
-0.75471705 -0.041273586 1.1792454 0.84799993
-1.0553633 -0.060553629 1.7301037 0.57800001
-0.3779473 -0.024271844 0.69348127 1.442
-0.80769235 -0.053846154 1.5384616 0.64999998
-0.8227849 -0.055379752 1.5822786 0.63199997
-0.51334703 -0.035934292 1.0266941 0.97399998
-0.4889113 -0.035282258 1.0080645 0.99199998
-0.38336051 -0.028548123 0.81566066 1.2260001
-0.21947527 -0.01765893 0.50454086 1.982
-0.21695258 -0.01765893 0.50454086 1.982
0.75462013 -0.035934292 1.0266941 0.97399998
0.52054793 -0.023972603 0.68493152 1.46
0.52397263 -0.023972603 0.68493152 1.46
0.72602743 -0.023972603 0.68493152 1.46
0.7558946 -0.024271844 0.69348127 1.442
-1.0227273 -0.020053474 0.66844916 1.4960001
-1.0951009 -0.021613833 0.72046107 1.388
-1.0878962 -0.021613833 0.72046107 1.388
-1.0985402 -0.02189781 0.729927 1.37
-1.773399 -0.036945812 1.2315271 0.81199998
-1.7168676 -0.036144581 1.2048193 0.82999998
-1.7108434 -0.036144581 1.2048193 0.82999998
-1.6933497 -0.036945812 1.2315271 0.81199998
-1.6623712 -0.038659796 1.2886598 0.77599996
-1.6301546 -0.038659796 1.2886598 0.77599996
-0.79738057 -0.023112481 0.77041602 1.298
-0.7935285 -0.023112481 0.77041602 1.298
-0.78967643 -0.023112481 0.77041602 1.298
-0.78582436 -0.023112481 0.77041602 1.298
-0.75337332 -0.022488756 0.74962521 1.334
-0.74468088 -0.022796353 0.75987846 1.316
-0.7408815 -0.022796353 0.75987846 1.316
-0.71428573 -0.022796353 0.75987846 1.316
-0.53543913 -0.023112481 0.77041602 1.298
-0.76650947 -0.035377361 1.1792454 0.84799993
-1.0553633 -0.051903114 1.7301037 0.57800001
-1.0380622 -0.051903114 1.7301037 0.57800001
-0.82307696 -0.046153847 1.5384616 0.64999998
-0.80769235 -0.046153847 1.5384616 0.64999998
-0.28595695 -0.016987542 0.5662514 1.766
-0.40529013 -0.025597272 0.8532424 1.1719999
-0.32005689 -0.021337127 0.71123755 1.406
-0.1577802 -0.016322089 0.54406965 1.8379999
0.51712328 -0.020547945 0.68493152 1.46
0.52054793 -0.020547945 0.68493152 1.46
0.69896448 -0.022189349 0.73964494 1.352
0.71428573 -0.020804439 0.69348127 1.442
0.73287672 -0.020547945 0.68493152 1.46
0.74657536 -0.020547945 0.68493152 1.46
-1.0294117 -0.016711229 0.66844916 1.4960001
-1.7710844 -0.030120483 1.2048193 0.82999998
-1.7228917 -0.030120483 1.2048193 0.82999998
-1.5877597 -0.028868359 1.1547344 0.86600006
-1.175176 -0.022007043 0.88028169 1.136
-3.880368 -0.076687112 3.0674846 0.32600001
-3.8650305 -0.076687112 3.0674846 0.32600001
-3.8496933 -0.076687112 3.0674846 0.32600001
-1.4150944 -0.029481133 1.1792454 0.84799993
-1.373494 -0.030120483 1.2048193 0.82999998
-0.81334335 -0.01874063 0.74962521 1.334
-0.80959523 -0.01874063 0.74962521 1.334
-0.78102189 -0.018248174 0.729927 1.37
-0.77737224 -0.018248174 0.729927 1.37
-0.80508476 -0.019260401 0.77041602 1.298
-0.79738057 -0.019260401 0.77041602 1.298
-0.77887541 -0.018996961 0.75987846 1.316
-0.7522797 -0.018996961 0.75987846 1.316
-0.74848026 -0.018996961 0.75987846 1.316
-0.70839584 -0.01874063 0.74962521 1.334
-0.60583943 -0.018248174 0.729927 1.37
-1.0467128 -0.043252595 1.7301037 0.57800001
-0.80769235 -0.03846154 1.5384616 0.64999998
-0.28595695 -0.014156285 0.5662514 1.766
-0.48514852 -0.024752475 0.99009901 1.01
-0.40529013 -0.021331061 0.8532424 1.1719999
0.74948668 -0.025667351 1.0266941 0.97399998
0.50744247 -0.01691475 0.67658997 1.478
0.51420838 -0.01691475 0.67658997 1.478
0.68864226 -0.016318537 0.65274149 1.5320001
0.72526735 -0.016711229 0.66844916 1.4960001
-1.1023054 -0.014409222 0.72046107 1.388
-1.0914985 -0.014409222 0.72046107 1.388
-1.7334907 -0.023584908 1.1792454 0.84799993
-1.7228917 -0.024096387 1.2048193 0.82999998
-1.5877597 -0.023094688 1.1547344 0.86600006
-1.1883802 -0.017605634 0.88028169 1.136
-1.1839789 -0.017605634 0.88028169 1.136
-1.4209907 -0.023584908 1.1792454 0.84799993
-1.4150944 -0.023584908 1.1792454 0.84799993
-1.3795182 -0.024096387 1.2048193 0.82999998
-0.78467155 -0.01459854 0.729927 1.37
-0.78102189 -0.01459854 0.729927 1.37
-0.77737224 -0.01459854 0.729927 1.37
-0.77372265 -0.01459854 0.729927 1.37
-0.77887541 -0.01519757 0.75987846 1.316
-0.75337332 -0.014992504 0.74962521 1.334
-0.75607908 -0.01519757 0.75987846 1.316
-0.7522797 -0.01519757 0.75987846 1.316
-0.74848026 -0.01519757 0.75987846 1.316
-0.68083572 -0.014409222 0.72046107 1.388
-0.57044888 -0.012468828 0.6234414 1.604
-0.59878212 -0.013531799 0.67658997 1.478
-0.59201622 -0.013531799 0.67658997 1.478
-0.57820851 -0.013368983 0.66844916 1.4960001
-0.57152402 -0.013368983 0.66844916 1.4960001
-0.56818181 -0.013368983 0.66844916 1.4960001
-0.56483954 -0.013368983 0.66844916 1.4960001
-0.6015625 -0.015625 0.78125 1.28
-0.45121953 -0.012195122 0.60975611 1.64
-0.5546875 -0.015625 0.78125 1.28
-0.55078125 -0.015625 0.78125 1.28
-0.54296875 -0.015625 0.78125 1.28
-1.0467128 -0.034602076 1.7301037 0.57800001
-0.48019803 -0.01980198 0.99009901 1.01
-0.22452068 -0.010090817 0.50454086 1.982
0.50133687 -0.013368983 0.66844916 1.4960001
0.68692201 -0.01321004 0.66050196 1.5140001
0.68064523 -0.012903227 0.64516133 1.55
0.71664464 -0.01321004 0.66050196 1.5140001
-1.5271968 -0.015690377 1.0460252 0.95599997
-1.5115063 -0.015690377 1.0460252 0.95599997
-1.5762124 -0.017321015 1.1547344 0.86600006
-1.1655113 -0.012998266 0.8665511 1.154
-3.814935 -0.048701297 3.2467532 0.308
-0.84346509 -0.011398177 0.75987846 1.316
-0.73847258 -0.010806916 0.72046107 1.388
-0.7522797 -0.011398177 0.75987846 1.316
-0.74848026 -0.011398177 0.75987846 1.316
-0.6721195 -0.010668564 0.71123755 1.406
-0.62922865 -0.010148849 0.67658997 1.478
-0.56733167 -0.0093516214 0.6234414 1.604
-0.56109726 -0.0093516214 0.6234414 1.604
-0.57152402 -0.010026737 0.66844916 1.4960001
-0.56818181 -0.010026737 0.66844916 1.4960001
-0.56483954 -0.010026737 0.66844916 1.4960001
-0.640625 -0.01171875 0.78125 1.28
-0.6015625 -0.01171875 0.78125 1.28
-0.57448494 -0.011885895 0.79239303 1.262
-0.55078125 -0.01171875 0.78125 1.28
-0.48514852 -0.014851485 0.99009901 1.01
-0.22452068 -0.007568113 0.50454086 1.982
-0.21947527 -0.007568113 0.50454086 1.982
0.50133687 -0.010026737 0.66844916 1.4960001
0.66438359 -0.010273973 0.68493152 1.46
0.68064523 -0.0096774204 0.64516133 1.55
0.68709683 -0.0096774204 0.64516133 1.55
0.70822453 -0.0097911227 0.65274149 1.5320001
0.71475196 -0.0097911227 0.65274149 1.5320001
-1.6166282 -0.011547344 1.1547344 0.86600006
-1.453975 -0.010460252 1.0460252 0.95599997
-1.1971831 -0.0088028172 0.88028169 1.136
-1.0848286 -0.0081566069 0.81566066 1.2260001
-1.084437 -0.0082781455 0.82781452 1.2080001
-1.0761589 -0.0082781455 0.82781452 1.2080001
-1.3389122 -0.010460252 1.0460252 0.95599997
-3.8311689 -0.032467533 3.2467532 0.308
-3.7987013 -0.032467533 3.2467532 0.308
-3.7824676 -0.032467533 3.2467532 0.308
-0.84346509 -0.0075987848 0.75987846 1.316
-0.6726768 -0.0069348128 0.69348127 1.442
-0.64952636 -0.0067658997 0.67658997 1.478
-0.6541096 -0.006849315 0.68493152 1.46
-0.56733167 -0.0062344139 0.6234414 1.604
-0.59878212 -0.0067658997 0.67658997 1.478
-0.59246576 -0.006849315 0.68493152 1.46
-0.6484375 -0.0078125 0.78125 1.28
-0.64580029 -0.00792393 0.79239303 1.262
-0.6015625 -0.0078125 0.78125 1.28
-0.22452068 -0.0050454084 0.50454086 1.982
-0.21947527 -0.0050454084 0.50454086 1.982
-0.18584523 -0.0050916499 0.50916499 1.9639999
0.49799463 -0.0066844914 0.66844916 1.4960001
0.63902742 -0.0062344139 0.6234414 1.604
0.6600765 -0.0063775508 0.6377551 1.568
0.68709683 -0.0064516133 0.64516133 1.55
0.71475196 -0.006527415 0.65274149 1.5320001
-1.532258 -0.0050403224 1.0080645 0.99199998
-1.4938399 -0.0051334705 1.0266941 0.97399998
-1.4887064 -0.0051334705 1.0266941 0.97399998
-0.72354776 -0.0025933611 0.51867223 1.9279999
-1.1218488 -0.0042016809 0.8403362 1.1899999
-1.084437 -0.0041390727 0.82781452 1.2080001
-1.3336821 -0.005230126 1.0460252 0.95599997
-3.7987013 -0.016233766 3.2467532 0.308
-0.72468793 -0.0034674064 0.69348127 1.442
-0.71775311 -0.0034674064 0.69348127 1.442
-0.71428573 -0.0034674064 0.69348127 1.442
-0.71081829 -0.0034674064 0.69348127 1.442
-0.68673879 -0.0033829499 0.67658997 1.478
-0.67997289 -0.0033829499 0.67658997 1.478
-0.69001389 -0.0034674064 0.69348127 1.442
-0.68654644 -0.0034674064 0.69348127 1.442
-0.64276046 -0.0033829499 0.67658997 1.478
-0.57079083 -0.0031887754 0.6377551 1.568
-0.56760204 -0.0031887754 0.6377551 1.568
-0.65592206 -0.0037481261 0.74962521 1.334
-0.25804663 -0.0027746949 0.55493897 1.8019999
0.47650129 -0.0032637075 0.65274149 1.5320001
0.64526182 -0.003117207 0.6234414 1.604
0.65461349 -0.003117207 0.6234414 1.604
0.67920917 -0.0031887754 0.6377551 1.568
-1.795612 0 1.1547344 0.86600006
-1.4938399 0 1.0266941 0.97399998
-0.7261411 0 0.51867223 1.9279999
-0.71028519 0 0.50916499 1.9639999
-0.72095442 0 0.51867223 1.9279999
-1.3193018 0 1.0266941 0.97399998
-1.3336821 0 1.0460252 0.95599997
-1.3539445 0 1.0660981 0.93799996
-1.0841584 0 0.99009901 1.01
-0.72395128 0 0.67658997 1.478
-0.71917808 0 0.68493152 1.46
-0.72468793 0 0.69348127 1.442
-0.70890415 0 0.68493152 1.46
-0.71428573 0 0.69348127 1.442
-0.68673879 0 0.67658997 1.478
-0.69001389 0 0.69348127 1.442
-0.68654644 0 0.69348127 1.442
-0.64276046 0 0.67658997 1.478
-0.63937753 0 0.67658997 1.478
-0.22657841 0 0.50916499 1.9639999
-0.2240326 0 0.50916499 1.9639999
0.43556085 0 0.59665871 1.676
0.47193876 0 0.6377551 1.568
0.61719835 0 0.69348127 1.442
0.62885332 0 0.61652285 1.6219999
0.64526182 0 0.6234414 1.604
0.647349 0 0.61652285 1.6219999
-1.4616935 0.0050403224 1.0080645 0.99199998
-0.72873449 0.0025933611 0.51867223 1.9279999
-0.71028519 0.002545825 0.50916499 1.9639999
-1.1299669 0.0041390727 0.82781452 1.2080001
-1.1052202 0.0040783035 0.81566066 1.2260001
-1.2937744 0.0048638131 0.97276264 1.028
-1.2889105 0.0048638131 0.97276264 1.028
-1.2406015 0.0046992479 0.93984962 1.064
-1.0530547 0.0040192925 0.80385852 1.244
-1.0053929 0.0038520801 0.77041602 1.298
-1.118677 0.0048638131 0.97276264 1.028
-1.1138133 0.0048638131 0.97276264 1.028
-0.7205683 0.0033829499 0.67658997 1.478
-0.72260273 0.0034246575 0.68493152 1.46
-0.71917808 0.0034246575 0.68493152 1.46
-0.72468793 0.0034674064 0.69348127 1.442
-0.72122049 0.0034674064 0.69348127 1.442
-0.70890415 0.0034246575 0.68493152 1.46
-0.71428573 0.0034674064 0.69348127 1.442
-0.68493152 0.0034246575 0.68493152 1.46
-0.68150687 0.0034246575 0.68493152 1.46
-0.68654644 0.0034674064 0.69348127 1.442
-0.67961162 0.0034674064 0.69348127 1.442
-0.63315922 0.0032637075 0.65274149 1.5320001
-0.63077939 0.0033025099 0.66050196 1.5140001
-0.62747687 0.0033025099 0.66050196 1.5140001
-0.27161217 0.0029205608 0.58411217 1.7119999
-0.2631579 0.002860412 0.5720824 1.7479999
-0.23340251 0.0025933611 0.51867223 1.9279999
0.59367543 0.0029832935 0.59665871 1.676
0.63501853 0.0030826142 0.61652285 1.6219999
0.65351421 0.0030826142 0.61652285 1.6219999
-1.795612 0.011547344 1.1547344 0.86600006
-1.4674952 0.0095602293 0.95602292 1.046
-0.88007158 0.005966587 0.59665871 1.676
-0.74429464 0.0051867221 0.51867223 1.9279999
-0.84120429 0.0059031881 0.5903188 1.6939999
-0.78246397 0.0055493899 0.55493897 1.8019999
-0.71028519 0.0050916499 0.50916499 1.9639999
-1.4435147 0.010460252 1.0460252 0.95599997
-1.1052202 0.0081566069 0.81566066 1.2260001
-1.2986381 0.0097276261 0.97276264 1.028
-1.190909 0.0090909088 0.90909088 1.1
-1.2402724 0.0097276261 0.97276264 1.028
-1.118677 0.0097276261 0.97276264 1.028
-1.0946462 0.0095602293 0.95602292 1.046
-0.7794944 0.0070224721 0.7022472 1.424
-0.72468793 0.0069348128 0.69348127 1.442
-0.68493152 0.006849315 0.68493152 1.46
-0.68150687 0.006849315 0.68493152 1.46
-0.62747687 0.0066050198 0.66050196 1.5140001
-1.9469025 0.022123892 2.2123892 0.45200002
-0.27453271 0.0058411215 0.58411217 1.7119999
-0.23121388 0.0057803472 0.5780347 1.7299999
-0.17566192 0.0050916499 0.50916499 1.9639999
-0.13118063 0.0050454084 0.50454086 1.982
0.43257755 0.005966587 0.59665871 1.676
0.37336025 0.0050454084 0.50454086 1.982
0.59367543 0.005966587 0.59665871 1.676
0.62123036 0.0060313628 0.6031363 1.658
0.63932449 0.0060313628 0.6031363 1.658
-1.4674952 0.014340344 0.95602292 1.046
-1.0907047 0.011244378 0.74962521 1.334
-0.73910791 0.0077800835 0.51867223 1.9279999
-0.77968925 0.0083240848 0.55493897 1.8019999
-1.0334347 0.011398177 0.75987846 1.316
-1.0296353 0.011398177 0.75987846 1.316
-1.0258359 0.011398177 0.75987846 1.316
-1.2199631 0.013863216 0.92421442 1.082
-1.2153419 0.013863216 0.92421442 1.082
-1.190909 0.013636363 0.90909088 1.1
-1.0053929 0.011556241 0.77041602 1.298
-1.2077068 0.014097745 0.93984962 1.064
-1.2237093 0.014340344 0.95602292 1.046
-0.67320704 0.010148849 0.67658997 1.478
-0.63642293 0.0097911227 0.65274149 1.5320001
-0.62336814 0.0097911227 0.65274149 1.5320001
-1.9469025 0.03318584 2.2123892 0.45200002
-1.9358406 0.03318584 2.2123892 0.45200002
-1.9247786 0.03318584 2.2123892 0.45200002
-0.28040144 0.0088547822 0.5903188 1.6939999
-0.27453271 0.0087616825 0.58411217 1.7119999
-0.26029751 0.008581236 0.5720824 1.7479999
-0.23410405 0.00867052 0.5780347 1.7299999
0.42959428 0.0089498805 0.59665871 1.676
0.37588295 0.007568113 0.50454086 1.982
0.59367543 0.0089498805 0.59665871 1.676
0.58066362 0.008581236 0.5720824 1.7479999
0.60163552 0.0087616825 0.58411217 1.7119999
0.60404629 0.00867052 0.5780347 1.7299999
-1.4931906 0.019455252 0.97276264 1.028
-1.0323033 0.014044944 0.7022472 1.424
-0.80407697 0.011325028 0.5662514 1.766
-1.0307347 0.014992504 0.74962521 1.334
-1.0157422 0.014992504 0.74962521 1.334
-1.1999999 0.018181818 0.90909088 1.1
-1.2153419 0.018484289 0.92421442 1.082
-1.2171053 0.018796992 0.93984962 1.064
-1.2284894 0.019120459 0.95602292 1.046
-3.662791 0.05813954 2.9069769 0.34399998
-3.6191864 0.05813954 2.9069769 0.34399998
-1.0994264 0.019120459 0.95602292 1.046
-0.97272724 0.018181818 0.90909088 1.1
-0.96363634 0.018181818 0.90909088 1.1
-0.60529637 0.012610341 0.63051707 1.5859998
-0.60214382 0.012610341 0.63051707 1.5859998
-3.675 0.1 5 0.2
-3.6500001 0.1 5 0.2
-3.625 0.1 5 0.2
-3.55 0.1 5 0.2
-0.5090909 0.018181818 0.90909088 1.1
-0.37921348 0.014044944 0.7022472 1.424
-0.33756682 0.013368983 0.66844916 1.4960001
-0.33088234 0.013368983 0.66844916 1.4960001
0.44838712 0.012903227 0.64516133 1.55
0.58638448 0.011441648 0.5720824 1.7479999
0.60404629 0.011560694 0.5780347 1.7299999
0.60982662 0.011560694 0.5780347 1.7299999
0.62792057 0.011682243 0.58411217 1.7119999
0.80287206 0.01305483 0.65274149 1.5320001
-1.512646 0.024319066 0.97276264 1.028
-1.0518732 0.018011527 0.72046107 1.388
-0.80949658 0.01430206 0.5720824 1.7479999
-0.80663621 0.01430206 0.5720824 1.7479999
-0.80377579 0.01430206 0.5720824 1.7479999
-1.0307347 0.01874063 0.74962521 1.334
-1.0059171 0.018491123 0.73964494 1.352
-1.0022188 0.018491123 0.73964494 1.352
-1.2453008 0.02349624 0.93984962 1.064
-1.2199631 0.023105361 0.92421442 1.082
-1.2153419 0.023105361 0.92421442 1.082
-3.662791 0.072674423 2.9069769 0.34399998
-0.99031687 0.022007043 0.88028169 1.136
-0.98591548 0.022007043 0.88028169 1.136
-0.97271127 0.022007043 0.88028169 1.136
-0.96830988 0.022007043 0.88028169 1.136
-0.66050196 0.016512549 0.66050196 1.5140001
-1.7490119 0.049407117 1.9762846 0.50599998
-3.575 0.125 5 0.2
-3.55 0.125 5 0.2
-3.5250001 0.125 5 0.2
-0.76030928 0.032216497 1.2886598 0.77599996
-0.75386602 0.032216497 1.2886598 0.77599996
-0.7474227 0.032216497 1.2886598 0.77599996
-0.51363635 0.022727272 0.90909088 1.1
-0.5090909 0.022727272 0.90909088 1.1
-0.38822529 0.021331061 0.8532424 1.1719999
-0.30547753 0.017556179 0.7022472 1.424
-0.19633508 0.013089006 0.52356023 1.91
-0.18839104 0.012729125 0.50916499 1.9639999
-0.18242548 0.012846865 0.51387459 1.9460001
0.44838712 0.016129034 0.64516133 1.55
0.54424161 0.017556179 0.7022472 1.424
0.50756621 0.015762927 0.63051707 1.5859998
0.55778033 0.01430206 0.5720824 1.7479999
0.58040768 0.014156285 0.5662514 1.766
-1.4674952 0.028680688 0.95602292 1.046
-1.3072183 0.026408451 0.88028169 1.136
-1.2984155 0.026408451 0.88028169 1.136
-0.97982705 0.021613833 0.72046107 1.388
-2.461832 0.057251908 1.908397 0.52399999
-3.6337211 0.087209307 2.9069769 0.34399998
-2.4407115 0.059288539 1.9762846 0.50599998
-2.43083 0.059288539 1.9762846 0.50599998
-2.4209487 0.059288539 1.9762846 0.50599998
-2.0089285 0.053571429 1.7857143 0.56
-0.64837903 0.018703243 0.6234414 1.604
-1.5553747 0.048859939 1.6286646 0.61399996
-1.7094862 0.059288539 1.9762846 0.50599998
-3.45 0.15000001 5 0.2
-3.425 0.15000001 5 0.2
-3.4000001 0.15000001 5 0.2
-0.51363635 0.027272725 0.90909088 1.1
-0.61576355 0.036945812 1.2315271 0.81199998
-0.48254621 0.030800821 1.0266941 0.97399998
-0.38822529 0.025597272 0.8532424 1.1719999
-0.32481751 0.02189781 0.729927 1.37
-0.30898878 0.021067416 0.7022472 1.424
-0.20084569 0.015856238 0.52854127 1.8919998
-0.19633508 0.015706807 0.52356023 1.91
0.53486532 0.023771791 0.79239303 1.262
0.41471964 0.017523365 0.58411217 1.7119999
0.42056075 0.017523365 0.58411217 1.7119999
0.53615957 0.018703243 0.6234414 1.604
0.54254013 0.018495686 0.61652285 1.6219999
0.54652464 0.016816143 0.56053811 1.784
0.55493271 0.016816143 0.56053811 1.784
0.56053811 0.016816143 0.56053811 1.784
0.57174885 0.016816143 0.56053811 1.784
0.56881243 0.01664817 0.55493897 1.8019999
0.58295965 0.016816143 0.56053811 1.784
0.60354692 0.017162472 0.5720824 1.7479999
0.60022646 0.016987542 0.5662514 1.766
-1.5077821 0.034046691 0.97276264 1.028
-1.4931906 0.034046691 0.97276264 1.028
-1.3171576 0.030329289 0.8665511 1.154
-1.3160211 0.030809859 0.88028169 1.136
-1.0482708 0.025216138 0.72046107 1.388
-1.1902732 0.029863484 0.8532424 1.1719999
-2.480916 0.066793896 1.908397 0.52399999
-2.471374 0.066793896 1.908397 0.52399999
-2.43083 0.069169961 1.9762846 0.50599998
-2.4209487 0.069169961 1.9762846 0.50599998
-2.1678967 0.06457565 1.8450185 0.542
-2.1586716 0.06457565 1.8450185 0.542
-2.1402214 0.06457565 1.8450185 0.542
-2.1033211 0.06457565 1.8450185 0.542
-2 0.0625 1.7857143 0.56
-1.9741699 0.06457565 1.8450185 0.542
-1.9557196 0.06457565 1.8450185 0.542
-1.6060128 0.055379752 1.5822786 0.63199997
-1.563518 0.05700326 1.6286646 0.61399996
-1.6262975 0.060553629 1.7301037 0.57800001
-1.5916954 0.060553629 1.7301037 0.57800001
-1.5830449 0.060553629 1.7301037 0.57800001
-1.5743943 0.060553629 1.7301037 0.57800001
-1.7391305 0.069169961 1.9762846 0.50599998
-1.729249 0.069169961 1.9762846 0.50599998
-1.7094862 0.069169961 1.9762846 0.50599998
-1.935096 0.084134609 2.403846 0.41600001
-1.9110576 0.084134609 2.403846 0.41600001
-1.8990383 0.084134609 2.403846 0.41600001
-3.3715599 0.16055048 4.5871563 0.21799998
-3.348624 0.16055048 4.5871563 0.21799998
-3.3256884 0.16055048 4.5871563 0.21799998
-0.60344827 0.043103449 1.2315271 0.81199998
-0.48767969 0.035934292 1.0266941 0.97399998
-0.29431665 0.02368065 0.67658997 1.478
-0.21153845 0.019230768 0.54945052 1.8200001
-0.18584523 0.017820776 0.50916499 1.9639999
-0.1400415 0.018153528 0.51867223 1.9279999
0.53486532 0.027733756 0.79239303 1.262
0.40731996 0.020661158 0.5903188 1.6939999
0.41471964 0.020443926 0.58411217 1.7119999
0.53020966 0.021578299 0.61652285 1.6219999
0.56603777 0.019422865 0.55493897 1.8019999
0.57142854 0.019230768 0.54945052 1.8200001
0.61212814 0.020022884 0.5720824 1.7479999
0.6311208 0.019042438 0.54406965 1.8379999
0.76371568 0.021820448 0.6234414 1.604
-1.2689077 0.033613447 0.8403362 1.1899999
-1.2868284 0.034662046 0.8665511 1.154
-1.3028169 0.035211269 0.88028169 1.136
-1.1908646 0.032626428 0.81566066 1.2260001
-1.0446686 0.028818443 0.72046107 1.388
-1.0410663 0.028818443 0.72046107 1.388
-1.0241821 0.028449502 0.71123755 1.406
-2.480916 0.076335877 1.908397 0.52399999
-2.3854961 0.076335877 1.908397 0.52399999
-2.3568702 0.076335877 1.908397 0.52399999
-2.3473282 0.076335877 1.908397 0.52399999
-2.1586716 0.073800743 1.8450185 0.542
-2.1494465 0.073800743 1.8450185 0.542
-2.1402214 0.073800743 1.8450185 0.542
-2.1125462 0.073800743 1.8450185 0.542
-2.1033211 0.073800743 1.8450185 0.542
-2.0089285 0.071428567 1.7857143 0.56
-2 0.071428567 1.7857143 0.56
-1.9821428 0.071428567 1.7857143 0.56
-1.7246836 0.063291147 1.5822786 0.63199997
-1.9833949 0.073800743 1.8450185 0.542
-1.9741699 0.073800743 1.8450185 0.542
-1.9649447 0.073800743 1.8450185 0.542
-1.6218356 0.063291147 1.5822786 0.63199997
-1.6060128 0.063291147 1.5822786 0.63199997
-1.6368079 0.065146588 1.6286646 0.61399996
-1.6286646 0.065146588 1.6286646 0.61399996
-1.6205213 0.065146588 1.6286646 0.61399996
-1.612378 0.065146588 1.6286646 0.61399996
-1.6042347 0.065146588 1.6286646 0.61399996
-1.587948 0.065146588 1.6286646 0.61399996
-1.563518 0.065146588 1.6286646 0.61399996
-1.5855705 0.067114092 1.6778523 0.59600002
-1.5687919 0.067114092 1.6778523 0.59600002
-1.5916954 0.069204152 1.7301037 0.57800001
-1.5830449 0.069204152 1.7301037 0.57800001
-1.9110576 0.09615384 2.403846 0.41600001
-1.8870192 0.09615384 2.403846 0.41600001
-3.375 0.2 5 0.2
-0.7667526 0.051546391 1.2886598 0.77599996
-0.75386602 0.051546391 1.2886598 0.77599996
-0.65303433 0.052770451 1.3192613 0.75799996
-0.60344827 0.049261082 1.2315271 0.81199998
-0.48767969 0.041067764 1.0266941 0.97399998
-0.22562242 0.020746889 0.51867223 1.9279999
-0.22311214 0.022883296 0.5720824 1.7479999
-0.15183246 0.020942409 0.52356023 1.91
-0.13874874 0.020181634 0.50454086 1.982
0.53486532 0.03169572 0.79239303 1.262
0.52773499 0.030816641 0.77041602 1.298
0.51652896 0.023612753 0.5903188 1.6939999
0.52774757 0.021762786 0.54406965 1.8379999
0.53590858 0.021762786 0.54406965 1.8379999
0.56043953 0.021978021 0.54945052 1.8200001
0.5686813 0.021978021 0.54945052 1.8200001
0.57142854 0.021978021 0.54945052 1.8200001
0.58856499 0.022421524 0.56053811 1.784
-1.2773111 0.037815128 0.8403362 1.1899999
-1.2605042 0.037815128 0.8403362 1.1899999
-1.2713312 0.038395908 0.8532424 1.1719999
-1.1908646 0.03670473 0.81566066 1.2260001
-1.0583942 0.032846715 0.729927 1.37
-1.1704731 0.03670473 0.81566066 1.2260001
-2.471374 0.085877866 1.908397 0.52399999
-2.3854961 0.085877866 1.908397 0.52399999
-1.9966443 0.075503349 1.6778523 0.59600002
-1.8566777 0.073289908 1.6286646 0.61399996
-1.8078177 0.073289908 1.6286646 0.61399996
-1.7325951 0.071202539 1.5822786 0.63199997
-1.9741699 0.083025835 1.8450185 0.542
-1.9649447 0.083025835 1.8450185 0.542
-1.7182412 0.073289908 1.6286646 0.61399996
-1.6076924 0.069230773 1.5384616 0.64999998
-1.6 0.069230773 1.5384616 0.64999998
-1.5846155 0.069230773 1.5384616 0.64999998
-1.6218356 0.071202539 1.5822786 0.63199997
-1.5692308 0.069230773 1.5384616 0.64999998
-1.6060128 0.071202539 1.5822786 0.63199997
-1.5981014 0.071202539 1.5822786 0.63199997
-1.6368079 0.073289908 1.6286646 0.61399996
-1.6205213 0.073289908 1.6286646 0.61399996
-1.6042347 0.073289908 1.6286646 0.61399996
-1.563518 0.073289908 1.6286646 0.61399996
-0.75386602 0.05798969 1.2886598 0.77599996
-0.66622698 0.059366759 1.3192613 0.75799996
-0.65963066 0.059366759 1.3192613 0.75799996
-0.65303433 0.059366759 1.3192613 0.75799996
-0.37520391 0.03670473 0.81566066 1.2260001
-0.23317592 0.026564347 0.5903188 1.6939999
-0.16902119 0.022704339 0.50454086 1.982
0.39354473 0.025481313 0.5662514 1.766
0.51014322 0.026849642 0.59665871 1.676
0.51109815 0.026285047 0.58411217 1.7119999
0.52262938 0.024245692 0.53879315 1.8559998
0.53071123 0.024245692 0.53879315 1.8559998
0.55495101 0.024483135 0.54406965 1.8379999
0.56311208 0.024483135 0.54406965 1.8379999
0.57692301 0.024725273 0.54945052 1.8200001
0.8163265 0.028698979 0.6377551 1.568
-1.2773111 0.042016812 0.8403362 1.1899999
-1.2689077 0.042016812 0.8403362 1.1899999
-1.2458608 0.041390724 0.82781452 1.2080001
-1.2417217 0.041390724 0.82781452 1.2080001
-1.2436975 0.042016812 0.8403362 1.1899999
-1.1949428 0.040783033 0.81566066 1.2260001
-1.1568938 0.039619651 0.79239303 1.262
-1.1529318 0.039619651 0.79239303 1.262
-1.137084 0.039619651 0.79239303 1.262
-2.0721476 0.083892614 1.6778523 0.59600002
-2.0385904 0.083892614 1.6778523 0.59600002
-2.0302012 0.083892614 1.6778523 0.59600002
-2.021812 0.083892614 1.6778523 0.59600002
-2.0134227 0.083892614 1.6778523 0.59600002
-1.9966443 0.083892614 1.6778523 0.59600002
-1.9714764 0.083892614 1.6778523 0.59600002
-1.864821 0.081433229 1.6286646 0.61399996
-1.8566777 0.081433229 1.6286646 0.61399996
-1.8078177 0.081433229 1.6286646 0.61399996
-1.7484179 0.07911393 1.5822786 0.63199997
-1.7405065 0.07911393 1.5822786 0.63199997
-1.7325951 0.07911393 1.5822786 0.63199997
-1.5846155 0.07692308 1.5384616 0.64999998
-0.56109726 0.031172071 0.6234414 1.604
-0.55798006 0.031172071 0.6234414 1.604
-1.9110576 0.1201923 2.403846 0.41600001
-1.8870192 0.1201923 2.403846 0.41600001
-0.75386602 0.064432994 1.2886598 0.77599996
-0.61529934 0.055432372 1.1086475 0.90200001
-0.23255816 0.026427064 0.52854127 1.8919998
-0.22562242 0.025933612 0.51867223 1.9279999
-0.25535941 0.031525854 0.63051707 1.5859998
-0.13370332 0.025227044 0.50454086 1.982
0.39678136 0.027746949 0.55493897 1.8019999
0.4994159 0.029205609 0.58411217 1.7119999
0.53071123 0.026939657 0.53879315 1.8559998
0.52126557 0.025933612 0.51867223 1.9279999
0.55229455 0.026680896 0.53361791 1.8740001
0.57127315 0.027203482 0.54406965 1.8379999
0.60471207 0.026178012 0.52356023 1.91
0.8163265 0.031887755 0.6377551 1.568
-1.9974227 0.070876293 1.2886598 0.77599996
-1.2857144 0.046218492 0.8403362 1.1899999
-1.2815127 0.046218492 0.8403362 1.1899999
-1.258278 0.045529798 0.82781452 1.2080001
-1.2541389 0.045529798 0.82781452 1.2080001
-1.2499999 0.045529798 0.82781452 1.2080001
-1.2071778 0.044861335 0.81566066 1.2260001
-1.1410459 0.043581616 0.79239303 1.262
-1.9736844 0.076177292 1.3850417 0.72199994
-6.6999998 0.27500001 5 0.2
-6.6750002 0.27500001 5 0.2
-2.0114007 0.089576557 1.6286646 0.61399996
-2.0385904 0.092281878 1.6778523 0.59600002
-2.0302012 0.092281878 1.6778523 0.59600002
-1.9055376 0.089576557 1.6286646 0.61399996
-1.864821 0.089576557 1.6286646 0.61399996
-1.8037976 0.087025322 1.5822786 0.63199997
-1.7879748 0.087025322 1.5822786 0.63199997
-1.7642406 0.087025322 1.5822786 0.63199997
-1.7563293 0.087025322 1.5822786 0.63199997
-1.7484179 0.087025322 1.5822786 0.63199997
-1.5538462 0.084615387 1.5384616 0.64999998
-0.54372197 0.030829595 0.56053811 1.784
-0.52862149 0.03212617 0.58411217 1.7119999
-0.7474227 0.070876293 1.2886598 0.77599996
-0.62084258 0.060975611 1.1086475 0.90200001
-0.23255816 0.02906977 0.52854127 1.8919998
-0.26451614 0.035483874 0.64516133 1.55
-0.13622603 0.027749747 0.50454086 1.982
0.55460757 0.046928331 0.8532424 1.1719999
0.56313998 0.046928331 0.8532424 1.1719999
0.50295854 0.040680472 0.73964494 1.352
0.39678136 0.030521644 0.55493897 1.8019999
0.48766816 0.030829595 0.56053811 1.784
0.50051868 0.028526973 0.51867223 1.9279999
0.54704022 0.02906977 0.52854127 1.8919998
0.55763072 0.029348984 0.53361791 1.8740001
0.56289643 0.02906977 0.52854127 1.8919998
0.81651962 0.034678437 0.63051707 1.5859998
-1.1679688 0.046875 0.78125 1.28
-1.1977491 0.048231512 0.80385852 1.244
-1.1897106 0.048231512 0.80385852 1.244
-1.1949428 0.048939638 0.81566066 1.2260001
-1.1827079 0.048939638 0.81566066 1.2260001
-1.1786296 0.048939638 0.81566066 1.2260001
-1.8670888 0.094936714 1.5822786 0.63199997
-1.9055376 0.097719878 1.6286646 0.61399996
-0.56614351 0.033632286 0.56053811 1.784
-0.56053811 0.033632286 0.56053811 1.784
-0.53318828 0.032644179 0.54406965 1.8379999
-0.5409193 0.033632286 0.56053811 1.784
-0.47029704 0.059405942 0.99009901 1.01
-0.26285046 0.03504673 0.58411217 1.7119999
-0.18498944 0.031712476 0.52854127 1.8919998
-0.13874874 0.030272452 0.50454086 1.982
-0.13622603 0.030272452 0.50454086 1.982
0.56313998 0.051194545 0.8532424 1.1719999
0.39678136 0.033296339 0.55493897 1.8019999
0.48131368 0.033975083 0.5662514 1.766
0.48279691 0.033296339 0.55493897 1.8019999
0.49588898 0.030832475 0.51387459 1.9460001
0.50359708 0.030832475 0.51387459 1.9460001
0.51387459 0.030832475 0.51387459 1.9460001
0.51680249 0.030549899 0.50916499 1.9639999
0.53423238 0.031120334 0.51867223 1.9279999
0.55232561 0.031712476 0.52854127 1.8919998
0.60994768 0.031413615 0.52356023 1.91
0.80164438 0.030832475 0.51387459 1.9460001
-1.9974227 0.083762884 1.2886598 0.77599996
-1.2316476 0.053017944 0.81566066 1.2260001
-1.1757812 0.05078125 0.78125 1.28
-1.1517719 0.05007704 0.77041602 1.298
-1.1484375 0.05078125 0.78125 1.28
-1.1445312 0.05078125 0.78125 1.28
-1.1489699 0.051505547 0.79239303 1.262
-6.7249999 0.32499999 5 0.2
-6.6999998 0.32499999 5 0.2
-6.6750002 0.32499999 5 0.2
-1.9630872 0.1090604 1.6778523 0.59600002
-0.55494499 0.035714284 0.54945052 1.8200001
-0.5409193 0.036434978 0.56053811 1.784
-0.48926014 0.038782816 0.59665871 1.676
-0.60975611 0.072062083 1.1086475 0.90200001
-0.49794662 0.066735111 1.0266941 0.97399998
-0.47524753 0.064356439 0.99009901 1.01
-0.27743903 0.039634146 0.60975611 1.64
-0.27141133 0.03920386 0.6031363 1.658
-0.19027485 0.034355182 0.52854127 1.8919998
-0.15505984 0.035364527 0.54406965 1.8379999
-0.13370332 0.032795157 0.50454086 1.982
0.65708423 0.066735111 1.0266941 0.97399998
0.49475265 0.048725639 0.74962521 1.334
0.48008534 0.046230439 0.71123755 1.406
0.3852371 0.035021555 0.53879315 1.8559998
0.47169814 0.036071032 0.55493897 1.8019999
0.4717457 0.032795157 0.50454086 1.982
0.47931382 0.032795157 0.50454086 1.982
0.48879838 0.033095725 0.50916499 1.9639999
0.49588898 0.033401847 0.51387459 1.9460001
0.49898168 0.033095725 0.50916499 1.9639999
0.50916499 0.033095725 0.50916499 1.9639999
0.54712045 0.034031413 0.52356023 1.91
0.7689988 0.03920386 0.6031363 1.658
0.78658539 0.039634146 0.60975611 1.64
0.79175156 0.033095725 0.50916499 1.9639999
-1.9587629 0.090206183 1.2886598 0.77599996
-1.171875 0.0546875 0.78125 1.28
-1.1517719 0.05392912 0.77041602 1.298
-1.1601562 0.0546875 0.78125 1.28
-1.9324327 0.094594605 1.3513515 0.73999989
-1.9189191 0.094594605 1.3513515 0.73999989
-0.61378926 0.039237667 0.56053811 1.784
-0.5767138 0.038084876 0.54406965 1.8379999
-0.5739935 0.038084876 0.54406965 1.8379999
-0.55223072 0.038084876 0.54406965 1.8379999
-0.54951036 0.038084876 0.54406965 1.8379999
-0.50829875 0.036307056 0.51867223 1.9279999
-1.2048969 0.090206183 1.2886598 0.77599996
-1.1984537 0.090206183 1.2886598 0.77599996
-0.48097256 0.036997888 0.52854127 1.8919998
-0.64665127 0.080831409 1.1547344 0.86600006
-0.63510388 0.080831409 1.1547344 0.86600006
-0.28048781 0.042682927 0.60975611 1.64
-0.27743903 0.042682927 0.60975611 1.64
-0.19858542 0.038084876 0.54406965 1.8379999
-0.16421291 0.039637599 0.5662514 1.766
-0.14388488 0.035971221 0.51387459 1.9460001
0.63366336 0.069306932 0.99009901 1.01
0.4615795 0.037353255 0.53361791 1.8740001
0.46922299 0.035317861 0.50454086 1.982
0.4717457 0.035317861 0.50454086 1.982
0.47426841 0.035317861 0.50454086 1.982
0.48879838 0.035641551 0.50916499 1.9639999
0.49134421 0.035641551 0.50916499 1.9639999
0.49898168 0.035641551 0.50916499 1.9639999
0.50916499 0.035641551 0.50916499 1.9639999
0.51425666 0.035641551 0.50916499 1.9639999
0.51210898 0.035317861 0.50454086 1.982
0.5171544 0.035317861 0.50454086 1.982
0.5196771 0.035317861 0.50454086 1.982
0.53207743 0.035641551 0.50916499 1.9639999
0.68799543 0.039637599 0.5662514 1.766
0.78658539 0.042682927 0.60975611 1.64
0.77699292 0.035317861 0.50454086 1.982
-1.7725172 0.086605079 1.1547344 0.86600006
-1.9458764 0.096649483 1.2886598 0.77599996
-1.1367188 0.05859375 0.78125 1.28
-4.7241383 0.25862071 3.448276 0.28999999
-4.7068968 0.25862071 3.448276 0.28999999
-0.78407717 0.045235224 0.6031363 1.658
-1.6486489 0.10135137 1.3513515 0.73999989
-1.5831136 0.098944597 1.3192613 0.75799996
-1.6013515 0.10135137 1.3513515 0.73999989
-0.63986409 0.042468853 0.5662514 1.766
-0.56296688 0.040021345 0.53361791 1.8740001
-0.54188484 0.039267018 0.52356023 1.91
-0.54687506 0.040409487 0.53879315 1.8559998
-1.1984537 0.096649483 1.2886598 0.77599996
-0.49522674 0.044749402 0.59665871 1.676
-0.63192904 0.083148561 1.1086475 0.90200001
-0.60975611 0.083148561 1.1086475 0.90200001
-0.60960591 0.092364535 1.2315271 0.81199998
-0.29003784 0.047288779 0.63051707 1.5859998
-0.2145309 0.04290618 0.5720824 1.7479999
-0.17231309 0.043808412 0.58411217 1.7119999
0.63141686 0.077002056 1.0266941 0.97399998
0.36307055 0.038900416 0.51867223 1.9279999
0.45528021 0.040409487 0.53879315 1.8559998
0.45718819 0.039640594 0.52854127 1.8919998
0.4616549 0.037840564 0.50454086 1.982
0.49445003 0.037840564 0.50454086 1.982
0.50661916 0.038187373 0.50916499 1.9639999
0.50454086 0.037840564 0.50454086 1.982
0.51210898 0.037840564 0.50454086 1.982
0.5196771 0.037840564 0.50454086 1.982
0.52724522 0.037840564 0.50454086 1.982
0.58115184 0.039267018 0.52356023 1.91
0.71347678 0.042468853 0.5662514 1.766
0.79684323 0.038187373 0.50916499 1.9639999
0.82984298 0.039267018 0.52356023 1.91
-2.1052635 0.11080334 1.3850417 0.72199994
-1.1440678 0.061633281 0.77041602 1.298
-1.9662164 0.10810812 1.3513515 0.73999989
-0.78709286 0.048250902 0.6031363 1.658
-0.78407717 0.048250902 0.6031363 1.658
-0.78106153 0.048250902 0.6031363 1.658
-1.6418921 0.10810812 1.3513515 0.73999989
-1.5878381 0.10810812 1.3513515 0.73999989
-1.6204988 0.11080334 1.3850417 0.72199994
-0.63986409 0.045300111 0.5662514 1.766
-0.63420159 0.045300111 0.5662514 1.766
-0.6098901 0.043956041 0.54945052 1.8200001
-0.61378926 0.044843048 0.56053811 1.784
-0.61098653 0.044843048 0.56053811 1.784
-0.60538119 0.044843048 0.56053811 1.784
-0.53163904 0.041493777 0.51867223 1.9279999
-0.54162216 0.042689431 0.53361791 1.8740001
-0.50616646 0.041109968 0.51387459 1.9460001
-1.1775819 0.10075567 1.2594459 0.79399997
-1.1649874 0.10075567 1.2594459 0.79399997
-0.47568715 0.0422833 0.52854127 1.8919998
-0.61529934 0.088691801 1.1086475 0.90200001
-1.027668 0.15810277 1.9762846 0.50599998
-0.21989174 0.054127198 0.67658997 1.478
-0.1967742 0.051612906 0.64516133 1.55
0.61881191 0.07920792 0.99009901 1.01
0.62871289 0.07920792 0.99009901 1.01
0.43048468 0.051020406 0.6377551 1.568
0.36047721 0.041493777 0.51867223 1.9279999
0.36150715 0.0407332 0.50916499 1.9639999
0.4624736 0.0422833 0.52854127 1.8919998
0.52724522 0.040363267 0.50454086 1.982
0.52976793 0.040363267 0.50454086 1.982
