# .PCD v0.7 - Point Cloud Data file format
VERSION 0.7
FIELDS x y z intensity
SIZE 4 4 4 4
TYPE F F F F
COUNT 1 1 1 1
WIDTH 516
HEIGHT 1
VIEWPOINT 0 0 0 1 0 0 0
POINTS 516
DATA ascii
-0.64971125 -0.5923838 0.50176406 1.9929686
-0.79813206 -0.95161897 0.80604535 1.240625
-0.76543105 -0.93052399 0.78817737 1.26875
-0.76743466 -0.95161897 0.80604535 1.240625
-0.75208598 -0.95161897 0.80604535 1.240625
-0.79813206 -0.9362703 0.80604535 1.240625
-0.74079853 -0.88605314 0.76281285 1.3109375
-0.64971125 -0.57327467 0.50176406 1.9929686
-0.83720505 -0.94777936 0.82955283 1.2054688
-0.64971125 -0.56372005 0.50176406 1.9929686
-0.82140875 -0.93198299 0.82955283 1.2054688
-0.71558571 -0.86162364 0.76692635 1.3039062
-0.64971125 -0.55416548 0.50176406 1.9929686
-0.6532107 -0.74286705 0.67262214 1.4867188
-0.64961958 -0.7535587 0.68230283 1.4656249
-0.6366272 -0.7535587 0.68230283 1.4656249
-0.78550398 -0.65843713 0.60663509 1.6484374
-0.64709008 -0.72321832 0.66631967 1.5007812
-0.45225626 -0.54848099 0.50532967 1.9789062
-0.6756044 -0.72757393 0.68230283 1.4656249
-0.46580449 -0.56706631 0.53178233 1.8804686
-0.47772887 -0.52550179 0.50176406 1.9929686
-0.46817431 -0.52550179 0.50176406 1.9929686
-0.46580449 -0.55694014 0.53178233 1.8804686
-0.89628959 -0.72238266 0.70252472 1.4234375
-0.8829121 -0.72238266 0.70252472 1.4234375
-0.47772887 -0.51594716 0.50176406 1.9929686
-0.46817431 -0.51594716 0.50176406 1.9929686
-0.46613583 -0.55936301 0.54398638 1.8382813
-0.92839092 -0.73439878 0.72768623 1.3742187
-0.91453433 -0.73439878 0.72768623 1.3742187
-0.9006778 -0.73439878 0.72768623 1.3742187
-0.48728344 -0.5063926 0.50176406 1.9929686
-0.47772887 -0.5063926 0.50176406 1.9929686
-0.46817431 -0.5063926 0.50176406 1.9929686
-0.46580449 -0.53668779 0.53178233 1.8804686
-0.45577726 -0.54900444 0.54398638 1.8382813
-0.89628959 -0.69562775 0.70252472 1.4234375
-0.77563447 -0.61110592 0.61716491 1.6203125
-0.90552539 -0.78478867 0.79256964 1.2617188
-0.45231712 -0.53455663 0.53985661 1.8523437
-0.44203719 -0.53455663 0.53985661 1.8523437
-0.91418272 -0.68563706 0.70601213 1.4164063
-0.90073884 -0.68563706 0.70601213 1.4164063
-0.77563447 -0.59935391 0.61716491 1.6203125
-0.87534118 -0.76969653 0.79256964 1.2617188
-0.8602491 -0.76969653 0.79256964 1.2617188
-0.84515703 -0.76969653 0.79256964 1.2617188
-0.482449 -0.51260209 0.52783507 1.8945311
-0.44541866 -0.52828723 0.54398638 1.8382813
-0.8469153 -0.62273186 0.65406233 1.5289062
-0.83446068 -0.62273186 0.65406233 1.5289062
-0.82200605 -0.62273186 0.65406233 1.5289062
-0.79709679 -0.62273186 0.65406233 1.5289062
-0.81461257 -0.64651787 0.67904508 1.4726562
-0.87534118 -0.75460446 0.79256964 1.2617188
-0.44541866 -0.51792866 0.54398638 1.8382813
-0.79913855 -0.57584983 0.61716491 1.6203125
-0.89043325 -0.73951238 0.79256964 1.2617188
-0.54886615 -0.49804524 0.53377813 1.8734375
-0.53870201 -0.49804524 0.53377813 1.8734375
-0.52853781 -0.49804524 0.53377813 1.8734375
-0.51837361 -0.49804524 0.53377813 1.8734375
-0.50820941 -0.49804524 0.53377813 1.8734375
-0.47239798 -0.49250004 0.52783507 1.8945311
-0.45738849 -0.49804524 0.53377813 1.8734375
-0.79709679 -0.59782255 0.65406233 1.5289062
-0.55903035 -0.48788103 0.53377813 1.8734375
-0.4671962 -0.47713655 0.52202284 1.915625
-0.46755266 -0.48788103 0.53377813 1.8734375
-0.85936993 -0.58536792 0.65406233 1.5289062
-0.8469153 -0.58536792 0.65406233 1.5289062
-0.47771686 -0.47771686 0.53377813 1.8734375
-0.46755266 -0.47771686 0.53377813 1.8734375
-0.44906515 -0.43951055 0.50176406 1.9929686
-0.46285883 -0.48389786 0.5524385 1.8101562
-0.65666139 -0.43455535 0.50713158 1.9718748
-0.45861971 -0.42995599 0.50176406 1.9929686
-0.44906515 -0.42995599 0.50176406 1.9929686
-0.44896343 -0.44896343 0.52394599 1.9085937
-0.44906515 -0.42040139 0.50176406 1.9929686
-0.43870667 -0.44890916 0.53578907 1.8664061
-0.43870667 -0.43870667 0.53578907 1.8664061
-0.43870667 -0.4285042 0.53578907 1.8664061
-1.0242308 -0.60860091 0.77953714 1.2828125
-1.0093869 -0.60860091 0.77953714 1.2828125
-0.62697685 -0.40165704 0.51446944 1.94375
-0.66016537 -0.42963144 0.55030096 1.8171874
-0.64968657 -0.42963144 0.55030096 1.8171874
-0.70730484 -0.57998997 0.7428903 1.3460938
-0.4437215 -0.42308328 0.54191363 1.8453125
-0.70668566 -0.55426323 0.72768623 1.3742187
-0.46684641 -0.43427575 0.57015592 1.7539062
-1.0390748 -0.57891309 0.77953714 1.2828125
-1.0093869 -0.57891309 0.77953714 1.2828125
-0.72054219 -0.54040664 0.72768623 1.3742187
-0.70668566 -0.54040664 0.72768623 1.3742187
-0.69282907 -0.54040664 0.72768623 1.3742187
-0.69315875 -0.55169779 0.7428903 1.3460938
-1.026262 -0.57349938 0.79256964 1.2617188
-0.73439878 -0.52655005 0.72768623 1.3742187
-0.54540908 -0.46056768 0.63649929 1.5710937
-0.57221037 -0.45046347 0.63936067 1.5640625
-0.49884352 -0.42923746 0.60923374 1.6414062
-1.026262 -0.54331523 0.79256964 1.2617188
-0.44906515 -0.34396479 0.50176406 1.9929686
-0.52351159 -0.43828878 0.63936067 1.5640625
-0.44906515 -0.33441022 0.50176406 1.9929686
-0.52351159 -0.42611408 0.63936067 1.5640625
-0.44906515 -0.32485563 0.50176406 1.9929686
-0.55053586 -0.42541409 0.65708417 1.521875
-0.53802371 -0.42541409 0.65708417 1.521875
-0.44906515 -0.31530106 0.50176406 1.9929686
-0.55053586 -0.41290191 0.65708417 1.521875
-0.53802371 -0.41290191 0.65708417 1.521875
-0.44906515 -0.30574647 0.50176406 1.9929686
-0.82495683 -0.59996861 0.98461539 1.015625
-0.80620784 -0.59996861 0.98461539 1.015625
-0.83647949 -0.39893636 0.67581838 1.4796875
-0.44906515 -0.2961919 0.50176406 1.9929686
-0.82495683 -0.58121961 0.98461539 1.015625
-0.80620784 -0.58121961 0.98461539 1.015625
-0.44906515 -0.28663734 0.50176406 1.9929686
-0.84845245 -0.57849032 1.0126582 0.98750001
-0.82916945 -0.57849032 1.0126582 0.98750001
-0.82645029 -0.38042951 0.68891281 1.4515625
-0.44906515 -0.27708274 0.50176406 1.9929686
0.41575652 -0.37677935 0.68230283 1.4656249
0.42874894 -0.37677935 0.68230283 1.4656249
-0.83647949 -0.36032963 0.67581838 1.4796875
-0.82361054 -0.36032963 0.67581838 1.4796875
-0.81074166 -0.36032963 0.67581838 1.4796875
-0.81333202 -0.36731124 0.68891281 1.4515625
0.2811521 -0.3027792 0.56787932 1.7609376
0.39777043 -0.38405421 0.72031516 1.3882812
0.41148666 -0.38405421 0.72031516 1.3882812
-0.83647949 -0.34746072 0.67581838 1.4796875
-0.82361054 -0.34746072 0.67581838 1.4796875
-0.81074166 -0.34746072 0.67581838 1.4796875
0.25952503 -0.29196563 0.56787932 1.7609376
-0.85268682 -0.34107473 0.68891281 1.4515625
-0.83956856 -0.34107473 0.68891281 1.4515625
-1.1652777 -0.50495368 1.0199203 0.98046875
-1.1458564 -0.50495368 1.0199203 0.98046875
-0.62564993 -0.34610423 0.69907153 1.4304688
0.28232113 -0.34954044 0.70601213 1.4164063
0.29576501 -0.34954044 0.70601213 1.4164063
0.30616912 -0.34610423 0.69907153 1.4304688
-0.82158625 -0.29767618 0.62530535 1.5992187
-0.82417375 -0.30300504 0.63649929 1.5710937
-0.81333202 -0.32795647 0.68891281 1.4515625
-1.1652777 -0.48553237 1.0199203 0.98046875
-1.1458564 -0.48553237 1.0199203 0.98046875
-1.1264352 -0.48553237 1.0199203 0.98046875
-0.63896161 -0.33279252 0.69907153 1.4304688
-0.62564993 -0.33279252 0.69907153 1.4304688
-0.78216773 -0.27605921 0.60405856 1.6554686
-0.79787272 -0.30885395 0.67581838 1.4796875
-1.2093834 -0.55817693 1.2213742 0.8187499
-1.186126 -0.55817693 1.2213742 0.8187499
-0.63896161 -0.31948081 0.69907153 1.4304688
-0.62564993 -0.31948081 0.69907153 1.4304688
-0.84540039 -0.27386209 0.62530535 1.5992187
-0.80517268 -0.26455674 0.60405856 1.6554686
-0.79367018 -0.26455674 0.60405856 1.6554686
-1.2093834 -0.53491956 1.2213742 0.8187499
-1.186126 -0.53491956 1.2213742 0.8187499
-0.65227336 -0.30616912 0.69907153 1.4304688
-0.59237409 -0.2838459 0.64810127 1.5429688
-0.58003294 -0.2838459 0.64810127 1.5429688
-0.66376185 -0.21474648 0.51261514 1.9507812
-1.2093834 -0.51166219 1.2213742 0.8187499
-0.59237409 -0.27150479 0.64810127 1.5429688
-0.58003294 -0.27150479 0.64810127 1.5429688
-0.67352307 -0.20498528 0.51261514 1.9507812
-0.65432823 -0.20207195 0.50532967 1.9789062
0.25888693 -0.2013565 0.50354052 1.9859375
0.26847532 -0.2013565 0.50354052 1.9859375
0.27708274 -0.20064613 0.50176406 1.9929686
0.28663734 -0.20064613 0.50176406 1.9929686
0.2961919 -0.20064613 0.50176406 1.9929686
0.30574647 -0.20064613 0.50176406 1.9929686
0.31530106 -0.20064613 0.50176406 1.9929686
0.32485563 -0.20064613 0.50176406 1.9929686
0.33441022 -0.20064613 0.50176406 1.9929686
0.34396479 -0.20064613 0.50176406 1.9929686
0.36307395 -0.20064613 0.50176406 1.9929686
0.37262851 -0.20064613 0.50176406 1.9929686
0.3821831 -0.20064613 0.50176406 1.9929686
0.39173767 -0.20064613 0.50176406 1.9929686
-0.64971125 -0.19109155 0.50176406 1.9929686
0.21975528 -0.19109155 0.50176406 1.9929686
0.22930986 -0.19109155 0.50176406 1.9929686
0.23886444 -0.19109155 0.50176406 1.9929686
-0.49683803 -0.18153697 0.50176406 1.9929686
-0.48315695 -0.19531876 0.53985661 1.8523437
-0.48202553 -0.1990975 0.55030096 1.8171874
-0.65926582 -0.17198239 0.50176406 1.9929686
-0.44906515 -0.17198239 0.50176406 1.9929686
-0.472877 -0.18503882 0.53985661 1.8523437
0.14212085 -0.31977192 0.93294466 1.071875
0.15988596 -0.31977192 0.93294466 1.071875
0.15982771 -0.28768986 0.83934426 1.1914062
-0.65926582 -0.16242781 0.50176406 1.9929686
-0.44906515 -0.16242781 0.50176406 1.9929686
-0.43951055 -0.16242781 0.50176406 1.9929686
0.14212085 -0.30200681 0.93294466 1.071875
0.15988596 -0.30200681 0.93294466 1.071875
0.15982771 -0.27170709 0.83934426 1.1914062
-0.65926582 -0.15287323 0.50176406 1.9929686
-0.44906515 -0.15287323 0.50176406 1.9929686
-0.43951055 -0.15287323 0.50176406 1.9929686
0.12040655 -0.27521497 0.90331692 1.1070312
0.13760749 -0.27521497 0.90331692 1.1070312
0.1421669 -0.25274116 0.82955283 1.2054688
0.17581047 -0.25572434 0.83934426 1.1914062
-0.43951055 -0.14331867 0.50176406 1.9929686
0.10659064 -0.2664766 0.93294466 1.071875
0.12040655 -0.25801405 0.90331692 1.1070312
0.13760749 -0.25801405 0.90331692 1.1070312
-0.43951055 -0.13376409 0.50176406 1.9929686
0.10659064 -0.2487115 0.93294466 1.071875
0.12040655 -0.24081311 0.90331692 1.1070312
-1.1034051 -0.21409354 0.86486489 1.15625
-1.0869364 -0.21409354 0.86486489 1.15625
-1.0639974 -0.21279949 0.85963738 1.1632812
-1.4125974 -0.33388665 1.3487883 0.7414062
-1.3869138 -0.33388665 1.3487883 0.7414062
-0.44106662 -0.12464926 0.50354052 1.9859375
0.086004682 -0.22361216 0.90331692 1.1070312
-1.1034051 -0.1976248 0.86486489 1.15625
-1.4125974 -0.30820307 1.3487883 0.7414062
-1.3869138 -0.30820307 1.3487883 0.7414062
-0.66460663 -0.17337564 0.75874335 1.3179687
0.02340252 -0.14041512 0.61449832 1.6273438
0.047419701 -0.14225911 0.62256813 1.6062499
0.059274625 -0.14225911 0.62256813 1.6062499
-1.1034051 -0.18115607 0.86486489 1.15625
-0.84277976 -0.14715202 0.70252472 1.4234375
-0.66460663 -0.15892766 0.75874335 1.3179687
-0.73661363 -0.1800611 0.85963738 1.1632812
-0.63571066 -0.15892766 0.75874335 1.3179687
0.01170126 -0.12871386 0.61449832 1.6273438
0.02340252 -0.12871386 0.61449832 1.6273438
0.035564777 -0.13040417 0.62256813 1.6062499
-0.82128859 -0.1324659 0.69565219 1.4375
-0.67905462 -0.14447971 0.75874335 1.3179687
0.02340252 -0.1170126 0.61449832 1.6273438
0.035103779 -0.1170126 0.61449832 1.6273438
-0.82128859 -0.11921931 0.69565219 1.4375
-0.80804199 -0.11921931 0.69565219 1.4375
-0.76935202 -0.14732273 0.85963738 1.1632812
-0.8118692 -0.15884398 0.92686462 1.0789062
-0.72024441 -0.14732273 0.85963738 1.1632812
0.01170126 -0.10531134 0.61449832 1.6273438
0.02340252 -0.10531134 0.61449832 1.6273438
-0.77918005 -0.097397506 0.63936067 1.5640625
-0.79479539 -0.10597272 0.69565219 1.4375
-0.8118692 -0.14119464 0.92686462 1.0789062
-0.77657056 -0.14119464 0.92686462 1.0789062
-0.93270308 -0.096013553 0.72031516 1.3882812
-0.91898686 -0.096013553 0.72031516 1.3882812
-0.7925359 -0.090946741 0.68230283 1.4656249
-0.79479539 -0.092726126 0.69565219 1.4375
-0.79421991 -0.12354531 0.92686462 1.0789062
-0.93270308 -0.082297325 0.72031516 1.3882812
-0.91898686 -0.082297325 0.72031516 1.3882812
-0.90527064 -0.082297325 0.72031516 1.3882812
-0.7925359 -0.077954352 0.68230283 1.4656249
-0.47713655 -0.059642069 0.52202284 1.915625
-0.79913855 -0.058760185 0.61716491 1.6203125
-0.77228314 -0.058506299 0.61449832 1.6273438
-0.77954352 -0.064961962 0.68230283 1.4656249
-0.50371683 -0.051399674 0.53985661 1.8523437
-0.70263779 -0.078070864 0.81998718 1.2195313
-0.49683803 -0.038218308 0.50176406 1.9929686
-0.472877 -0.041119739 0.53985661 1.8523437
-0.70263779 -0.062456694 0.81998718 1.2195313
-0.71825194 -0.046842519 0.81998718 1.2195313
-0.70263779 -0.046842519 0.81998718 1.2195313
-0.80715793 -0.024459332 0.64224786 1.5570313
-0.8316173 -0.012229666 0.64224786 1.5570313
-0.81938761 -0.012229666 0.64224786 1.5570313
-0.8316173 0 0.64224786 1.5570313
-0.72162592 0 0.56562084 1.7679688
-0.69699562 0.01056054 0.55459273 1.803125
-0.81938761 0.024459332 0.64224786 1.5570313
-0.95931578 0.071060427 0.93294466 1.071875
-0.95931578 0.088825531 0.93294466 1.071875
-1.2289274 0.11172067 0.97784573 1.0226562
-0.88024658 0.09105999 0.7970112 1.2546875
-0.86506993 0.09105999 0.7970112 1.2546875
-0.95717299 0.10255425 0.89761579 1.1140624
-0.83471662 0.09105999 0.7970112 1.2546875
-0.81996042 0.09646593 0.84432721 1.1843749
-0.81354225 0.097625069 0.85447264 1.1703125
-0.79727137 0.097625069 0.85447264 1.1703125
-0.78572118 0.098215148 0.85963738 1.1632812
-0.83235013 0.10993303 0.82474226 1.2125
-0.78572118 0.11458434 0.85963738 1.1632812
-0.5923838 0.076436616 0.50176406 1.9929686
-0.58282924 0.076436616 0.50176406 1.9929686
-0.57327467 0.076436616 0.50176406 1.9929686
-0.59744489 0.081009477 0.53178233 1.8804686
-0.86094767 0.1187514 0.77953714 1.2828125
-0.84610373 0.1187514 0.77953714 1.2828125
-0.57349944 0.081928492 0.53781515 1.8593749
-0.55694014 0.081009477 0.53178233 1.8804686
-0.55301732 0.081928492 0.53781515 1.8593749
-0.52683824 0.079522759 0.52202284 1.915625
-0.97969902 0.14843924 0.77953714 1.2828125
-0.99454296 0.16328317 0.77953714 1.2828125
-0.9960779 0.16601299 0.79256964 1.2617188
-0.98098582 0.16601299 0.79256964 1.2617188
-0.97969902 0.1781271 0.77953714 1.2828125
0.43951055 0.11465493 0.50176406 1.9929686
-0.71593142 0.13891207 0.56115741 1.7820312
-0.70524591 0.13891207 0.56115741 1.7820312
-0.96835601 0.26784316 1.081995 0.92421865
0.40129226 0.12420951 0.50176406 1.9929686
0.41084683 0.12420951 0.50176406 1.9929686
-0.70208067 0.14670342 0.55030096 1.8171874
0.40204084 0.14071429 0.52783507 1.8945311
0.41209185 0.14071429 0.52783507 1.8945311
-0.69402444 0.15537861 0.54398638 1.8382813
-0.68366587 0.15537861 0.54398638 1.8382813
-0.98895931 0.30904979 1.081995 0.92421865
0.38193879 0.15076531 0.52783507 1.8945311
0.40709862 0.1565764 0.54817986 1.8242188
0.41753703 0.1565764 0.54817986 1.8242188
-0.94553244 0.25514367 0.78817737 1.26875
-0.93052399 0.25514367 0.78817737 1.26875
0.52012694 0.24561548 0.75874335 1.3179687
0.53457487 0.24561548 0.75874335 1.3179687
0.54902285 0.24561548 0.75874335 1.3179687
-0.95868045 0.26145831 0.76281285 1.3109375
-0.92920357 0.25731793 0.75073314 1.3320312
-0.94553244 0.27015212 0.78817737 1.26875
-0.93052399 0.27015212 0.78817737 1.26875
-1.4246396 0.5574677 1.6264296 0.61484373
-1.3936692 0.5574677 1.6264296 0.61484373
0.50567895 0.26006347 0.75874335 1.3179687
0.54331523 0.27165762 0.79256964 1.2617188
-0.94553244 0.28516057 0.78817737 1.26875
-1.4246396 0.58843809 1.6264296 0.61484373
-1.3936692 0.58843809 1.6264296 0.61484373
0.51313102 0.28674969 0.79256964 1.2617188
0.5282231 0.28674969 0.79256964 1.2617188
-0.9877314 0.29050922 0.76281285 1.3109375
-0.95868045 0.29050922 0.76281285 1.3109375
-0.94553244 0.30016905 0.78817737 1.26875
-1.0293287 0.38842592 1.0199203 0.98046875
0.51313102 0.3018418 0.79256964 1.2617188
0.5282231 0.3018418 0.79256964 1.2617188
-0.94415498 0.3050347 0.76281285 1.3109375
-0.94553244 0.3151775 0.78817737 1.26875
-1.0487499 0.4078472 1.0199203 0.98046875
-1.0099074 0.4078472 1.0199203 0.98046875
-0.99048609 0.4078472 1.0199203 0.98046875
0.49803895 0.31693387 0.79256964 1.2617188
-1.0530676 0.42122701 1.0054989 0.99453121
-1.0099074 0.42726851 1.0199203 0.98046875
-1.1957883 0.55973071 1.336117 0.7484374
-1.170346 0.55973071 1.336117 0.7484374
-1.0993303 0.36120856 0.82474226 1.2125
-1.0590599 0.35301995 0.80604535 1.240625
-1.0040313 0.39815032 0.90909088 1.1
-0.98672038 0.39815032 0.90909088 1.1
-0.96940947 0.39815032 0.90909088 1.1
-0.99048609 0.44668978 1.0199203 0.98046875
-1.1957883 0.58517301 1.336117 0.7484374
-1.170346 0.58517301 1.336117 0.7484374
-1.0401525 0.38811666 0.81528664 1.2265625
0.8602491 0.7168743 1.5058824 0.6640625
-0.84220713 0.32682666 0.66013414 1.5148436
-0.82963693 0.32682666 0.66013414 1.5148436
-0.8547774 0.33939692 0.66013414 1.5148436
-0.84220713 0.33939692 0.66013414 1.5148436
-1.5253863 0.90874076 1.7043942 0.58671874
-1.4929312 0.90874076 1.7043942 0.58671874
-1.247313 0.59298491 1.0738255 0.93125004
-1.5253863 0.94119579 1.7043942 0.58671874
-1.4929312 0.94119579 1.7043942 0.58671874
-1.4604763 0.94119579 1.7043942 0.58671874
-1.247313 0.61343265 1.0738255 0.93125004
-1.0659064 0.5329532 0.93294466 1.071875
-1.5253863 0.97365081 1.7043942 0.58671874
-1.4929312 0.97365081 1.7043942 0.58671874
-1.4604763 0.97365081 1.7043942 0.58671874
-1.0836715 0.55071831 0.93294466 1.071875
-1.0659064 0.55071831 0.93294466 1.071875
-1.066458 0.55042994 0.90331692 1.1070312
-1.049257 0.55042994 0.90331692 1.1070312
-0.97042042 0.51755756 0.84936965 1.1773437
-1.570358 0.72988468 1.1615245 0.86093748
-1.5482403 0.72988468 1.1615245 0.86093748
-1.0027678 0.53373122 0.84936965 1.1773437
-0.98659408 0.53373122 0.84936965 1.1773437
-0.97042042 0.53373122 0.84936965 1.1773437
-1.3190486 0.94627404 1.5058824 0.6640625
-1.2903737 0.94627404 1.5058824 0.6640625
0.30574647 0.31530106 0.50176406 1.9929686
0.31530106 0.31530106 0.50176406 1.9929686
-1.5924758 0.75200242 1.1615245 0.86093748
-1.570358 0.75200242 1.1615245 0.86093748
-0.97937196 0.53707498 0.82955283 1.2054688
-0.96357566 0.53707498 0.82955283 1.2054688
-0.94777936 0.53707498 0.82955283 1.2054688
-1.3062316 0.94493353 1.4595212 0.68515623
-1.3190486 0.974949 1.5058824 0.6640625
-1.2903737 0.974949 1.5058824 0.6640625
0.30574647 0.32485563 0.50176406 1.9929686
-0.94095325 0.5311833 0.7970112 1.2546875
-0.91059995 0.5311833 0.7970112 1.2546875
-1.3062316 0.97272569 1.4595212 0.68515623
-1.3190486 1.003624 1.5058824 0.6640625
-1.2903737 1.003624 1.5058824 0.6640625
0.32044339 0.35048494 0.52588332 1.9015625
0.31530106 0.33441022 0.50176406 1.9929686
-0.72084957 0.40547788 0.59149724 1.690625
-0.69832301 0.40547788 0.59149724 1.690625
-0.6870597 0.40547788 0.59149724 1.690625
-1.3190486 1.0322989 1.5058824 0.6640625
-1.2903737 1.0322989 1.5058824 0.6640625
-0.70958626 0.41674113 0.59149724 1.690625
-0.69832301 0.41674113 0.59149724 1.690625
-1.3190486 1.0609739 1.5058824 0.6640625
-1.2903737 1.0609739 1.5058824 0.6640625
-1.1857488 0.62581187 0.86486489 1.15625
-1.1692801 0.62581187 0.86486489 1.15625
-1.1528113 0.62581187 0.86486489 1.15625
-1.1503332 0.63351679 0.87551302 1.1421875
-0.70958626 0.42800441 0.59149724 1.690625
0.31530106 0.36307395 0.50176406 1.9929686
-0.92836213 0.65829313 0.88642663 1.128125
-0.91148281 0.65829313 0.88642663 1.128125
0.28177714 0.51232207 0.67262214 1.4867188
0.31530106 0.3821831 0.50176406 1.9929686
-0.90064579 0.57697618 0.73903006 1.353125
-0.87296462 0.56811982 0.72768623 1.3742187
-0.85910803 0.56811982 0.72768623 1.3742187
-0.85322261 0.58303547 0.74679118 1.3390625
-0.90562207 0.64018112 0.81998718 1.2195313
-0.92189938 0.66312063 0.84936965 1.1773437
-0.92224908 0.67521805 0.86486489 1.15625
-0.90578032 0.67521805 0.86486489 1.15625
-0.88931161 0.67521805 0.86486489 1.15625
-0.88906223 0.68776512 0.88093597 1.1351563
-0.87772417 0.69205177 0.88642663 1.128125
-0.86084491 0.69205177 0.88642663 1.128125
0.29046407 0.51778376 0.66321242 1.5078125
0.30309296 0.51778376 0.66321242 1.5078125
0.31530106 0.39173767 0.50176406 1.9929686
-0.85910803 0.58197641 0.72768623 1.3742187
-0.858428 0.59104878 0.73903006 1.353125
0.31530106 0.40129226 0.50176406 1.9929686
-0.87284285 0.70815551 0.86486489 1.15625
-0.86691773 0.7168743 0.87551302 1.1421875
0.27783519 0.54304153 0.66321242 1.5078125
0.31530106 0.42040139 0.50176406 1.9929686
0.88816285 0.55827379 0.66631967 1.5007812
-1.1279591 1.1034383 1.2877264 0.77656245
-1.2013336 1.2013336 1.4019716 0.71328121
-1.15248 1.1279591 1.2877264 0.77656245
-1.1279591 1.1279591 1.2877264 0.77656245
0.31530106 0.43951055 0.50176406 1.9929686
-1.122003 1.122003 1.2536728 0.7976563
0.20604344 0.56964952 0.63649929 1.5710937
0.21816364 0.56964952 0.63649929 1.5710937
0.19392323 0.5817697 0.63649929 1.5710937
0.20696969 0.58438504 0.63936067 1.5640625
0.21816364 0.5817697 0.63649929 1.5710937
0.94451463 0.64279467 0.68891281 1.4515625
1.9680648 1.513896 1.5900621 0.62890625
0.9182781 0.6690312 0.68891281 1.4515625
0.95927638 0.68905765 0.70953441 1.409375
0.93139637 0.68214947 0.68891281 1.4515625
0.71748596 0.55111241 0.54607511 1.83125
0.73828262 0.55111241 0.54607511 1.83125
0.97278732 0.71607953 0.70953441 1.409375
0.70708764 0.56151074 0.54607511 1.83125
0.73828262 0.56151074 0.54607511 1.83125
0.97278732 0.72959048 0.70953441 1.409375
0.21569669 0.69784224 0.66631967 1.5007812
0.20688573 0.72410005 0.67904508 1.4726562
0.21981609 0.72410005 0.67904508 1.4726562
0.22838473 0.71053028 0.66631967 1.5007812
0.35309622 0.56495392 0.52980137 1.8874998
0.36318466 0.56495392 0.52980137 1.8874998
0.35603154 0.53885853 0.50532967 1.9789062
0.37661463 0.54078001 0.50713158 1.9718748
0.40204084 0.56285715 0.52783507 1.8945311
0.41209185 0.56285715 0.52783507 1.8945311
0.22838473 0.72321832 0.66631967 1.5007812
0.071477197 0.84343094 0.75073314 1.3320312
0.085772641 0.84343094 0.75073314 1.3320312
0.069999211 0.8399905 0.73520964 1.3601563
0.055999368 0.85399038 0.73520964 1.3601563
0.069999211 0.85399038 0.73520964 1.3601563
0.16609013 1.2664373 1.0902897 0.91718739
0.57328182 1.1280707 0.9711684 1.0296875
0.59177476 1.1280707 0.9711684 1.0296875
0.64015669 0.58282924 0.50176406 1.9929686
0.66137803 0.59329498 0.51077414 1.9578125
0.14532886 1.2871985 1.0902897 0.91718739
0.55478889 1.1465636 0.9711684 1.0296875
0.57328182 1.1465636 0.9711684 1.0296875
0.64971125 0.5923838 0.50176406 1.9929686
0.14532886 1.3079598 1.0902897 0.91718739
0.64971125 0.60193837 0.50176406 1.9929686
0.64971125 0.61149293 0.50176406 1.9929686
0.64015669 0.62104756 0.50176406 1.9929686
0.64971125 0.62104756 0.50176406 1.9929686
0.5063926 0.64971125 0.50176406 1.9929686
0.47772887 0.65926582 0.50176406 1.9929686
0.48728344 0.65926582 0.50176406 1.9929686
