# .PCD v0.7 - Point Cloud Data file format
VERSION 0.7
FIELDS x y z intensity
SIZE 4 4 4 4
TYPE F F F F
COUNT 1 1 1 1
WIDTH 675
HEIGHT 1
VIEWPOINT 0 0 0 1 0 0 0
POINTS 675
DATA ascii
0.12472619 -0.49323541 0.95602292 1.046
0.18141991 -0.49323541 0.95602292 1.046
0.18708929 -0.49323541 0.95602292 1.046
0.12472619 -0.48756602 0.95602292 1.046
0.17575054 -0.48756602 0.95602292 1.046
0.18141991 -0.48756602 0.95602292 1.046
0.12472619 -0.48189664 0.95602292 1.046
0.17575054 -0.48189664 0.95602292 1.046
0.12472619 -0.47622728 0.95602292 1.046
0.13039556 -0.47622728 0.95602292 1.046
0.18141991 -0.47622728 0.95602292 1.046
0.12472619 -0.4705579 0.95602292 1.046
0.13039556 -0.4705579 0.95602292 1.046
0.18141991 -0.4705579 0.95602292 1.046
0.18708929 -0.4705579 0.95602292 1.046
0.12818962 -0.45702389 0.93984962 1.064
0.18708929 -0.46488854 0.95602292 1.046
0.12818962 -0.45145044 0.93984962 1.064
0.13376309 -0.45145044 0.93984962 1.064
0.18708929 -0.45921916 0.95602292 1.046
0.19275866 -0.45921916 0.95602292 1.046
0.13376309 -0.44587696 0.93984962 1.064
0.13933656 -0.44587696 0.93984962 1.064
0.19275866 -0.4535498 0.95602292 1.046
0.19842803 -0.4535498 0.95602292 1.046
0.13933656 -0.4403035 0.93984962 1.064
0.14491001 -0.4403035 0.93984962 1.064
0.19842803 -0.44788042 0.95602292 1.046
0.14491001 -0.43473005 0.93984962 1.064
0.15048347 -0.43473005 0.93984962 1.064
0.19842803 -0.44221103 0.95602292 1.046
0.20409741 -0.44221103 0.95602292 1.046
0.15307306 -0.43654168 0.95602292 1.046
0.15874243 -0.43654168 0.95602292 1.046
0.20409741 -0.43654168 0.95602292 1.046
-0.24663343 -0.41653645 0.92421442 1.082
-0.24115269 -0.41653645 0.92421442 1.082
0.15605694 -0.42358312 0.93984962 1.064
0.1644118 -0.43087229 0.95602292 1.046
0.17305925 -0.43841678 0.97276264 1.028
0.20190246 -0.43841678 0.97276264 1.028
0.20409741 -0.43087229 0.95602292 1.046
-0.25211418 -0.41105571 0.92421442 1.082
-0.24663343 -0.41105571 0.92421442 1.082
-0.24115269 -0.41105571 0.92421442 1.082
-0.25211418 -0.40557498 0.92421442 1.082
-0.24663343 -0.40557498 0.92421442 1.082
-0.24115269 -0.40557498 0.92421442 1.082
-0.25211418 -0.40009421 0.92421442 1.082
-0.24115269 -0.40009421 0.92421442 1.082
-0.23567194 -0.40009421 0.92421442 1.082
-0.25211418 -0.39461347 0.92421442 1.082
-0.23567194 -0.39461347 0.92421442 1.082
-0.2533797 -0.38276508 0.90909088 1.1
-0.24798866 -0.38276508 0.90909088 1.1
-0.23567194 -0.38913274 0.92421442 1.082
-0.63075376 -0.37737405 0.90909088 1.1
-0.2533797 -0.37737405 0.90909088 1.1
-0.24798866 -0.37737405 0.90909088 1.1
-0.22642443 -0.37737405 0.90909088 1.1
-0.63075376 -0.37198299 0.90909088 1.1
-0.2533797 -0.37198299 0.90909088 1.1
-0.22642443 -0.37198299 0.90909088 1.1
-0.63075376 -0.36659193 0.90909088 1.1
-0.62536269 -0.36659193 0.90909088 1.1
-0.25877076 -0.36659193 0.90909088 1.1
-0.2533797 -0.36659193 0.90909088 1.1
-0.2301912 -0.3726905 0.92421442 1.082
-0.22471045 -0.3726905 0.92421442 1.082
-0.63075376 -0.36120087 0.90909088 1.1
-0.63576615 -0.36720976 0.92421442 1.082
-0.31268135 -0.36120087 0.90909088 1.1
-0.30234286 -0.35538548 0.89445436 1.118
-0.30189922 -0.36120087 0.90909088 1.1
-0.25877076 -0.36120087 0.90909088 1.1
-0.2533797 -0.36120087 0.90909088 1.1
-0.64124691 -0.36172903 0.92421442 1.082
-0.30234286 -0.35008121 0.89445436 1.118
-0.30189922 -0.35580981 0.90909088 1.1
-0.29650816 -0.35580981 0.90909088 1.1
-0.18086451 -0.36172903 0.92421442 1.082
-0.17538378 -0.36172903 0.92421442 1.082
-0.29650816 -0.35041875 0.90909088 1.1
-0.2911171 -0.35041875 0.90909088 1.1
-0.191826 -0.35624829 0.92421442 1.082
-0.18634525 -0.35624829 0.92421442 1.082
-0.18086451 -0.35624829 0.92421442 1.082
-0.28112581 -0.33947268 0.89445436 1.118
-0.28499863 -0.35076755 0.92421442 1.082
-0.19730674 -0.35076755 0.92421442 1.082
-0.191826 -0.35076755 0.92421442 1.082
-0.27582157 -0.33416843 0.89445436 1.118
-0.27494395 -0.33963662 0.90909088 1.1
-0.20826823 -0.34528679 0.92421442 1.082
-0.20278749 -0.34528679 0.92421442 1.082
-0.19730674 -0.34528679 0.92421442 1.082
-0.26955289 -0.33424556 0.90909088 1.1
-0.26416183 -0.33424556 0.90909088 1.1
-0.21374896 -0.33980605 0.92421442 1.082
-0.20826823 -0.33980605 0.92421442 1.082
-0.26955289 -0.32885453 0.90909088 1.1
-0.26416183 -0.32885453 0.90909088 1.1
-0.21374896 -0.33432531 0.92421442 1.082
-0.20826823 -0.33432531 0.92421442 1.082
-0.26955289 -0.32346347 0.90909088 1.1
-0.26416183 -0.32346347 0.90909088 1.1
-0.21374896 -0.32884458 0.92421442 1.082
-0.20826823 -0.32884458 0.92421442 1.082
-0.26955289 -0.31807241 0.90909088 1.1
-0.20826823 -0.32336381 0.92421442 1.082
-0.27494395 -0.31268135 0.90909088 1.1
-0.26955289 -0.31268135 0.90909088 1.1
-0.20826823 -0.31788307 0.92421442 1.082
-0.20278749 -0.31788307 0.92421442 1.082
-0.27494395 -0.30729029 0.90909088 1.1
-0.27403715 -0.31240234 0.92421442 1.082
-0.25759491 -0.31240234 0.92421442 1.082
-0.25211418 -0.31240234 0.92421442 1.082
-0.24259759 -0.30729029 0.90909088 1.1
-0.23720653 -0.30729029 0.90909088 1.1
-0.22642443 -0.30729029 0.90909088 1.1
-0.22103336 -0.30729029 0.90909088 1.1
-0.20278749 -0.31240234 0.92421442 1.082
-0.27951789 -0.3069216 0.92421442 1.082
-0.26307565 -0.3069216 0.92421442 1.082
-0.25759491 -0.3069216 0.92421442 1.082
-0.22103336 -0.30189922 0.90909088 1.1
-0.20278749 -0.3069216 0.92421442 1.082
-0.28499863 -0.30144086 0.92421442 1.082
-0.27951789 -0.30144086 0.92421442 1.082
-0.26855639 -0.30144086 0.92421442 1.082
-0.22103336 -0.29650816 0.90909088 1.1
-0.2156423 -0.29650816 0.90909088 1.1
-0.21374896 -0.30144086 0.92421442 1.082
-0.19730674 -0.30144086 0.92421442 1.082
-0.28499863 -0.2959601 0.92421442 1.082
-0.27951789 -0.2959601 0.92421442 1.082
-0.27403715 -0.2959601 0.92421442 1.082
-0.2048602 -0.2911171 0.90909088 1.1
-0.19730674 -0.2959601 0.92421442 1.082
-0.28499863 -0.29047936 0.92421442 1.082
-0.27951789 -0.29047936 0.92421442 1.082
-0.19730674 -0.29047936 0.92421442 1.082
-0.191826 -0.29047936 0.92421442 1.082
0.46971592 -0.25834376 0.99009901 1.01
0.45054632 -0.26180395 1.0266941 0.97399998
0.45663479 -0.26180395 1.0266941 0.97399998
0.46971592 -0.25247231 0.99009901 1.01
0.45210159 -0.24660087 0.99009901 1.01
0.46384448 -0.24660087 0.99009901 1.01
0.38649899 -0.23651432 0.97276264 1.028
0.39226764 -0.23651432 0.97276264 1.028
0.39803627 -0.23651432 0.97276264 1.028
0.45797303 -0.24072942 0.99009901 1.01
0.46384448 -0.24072942 0.99009901 1.01
0.39226764 -0.23074567 0.97276264 1.028
0.39803627 -0.23074567 0.97276264 1.028
0.45797303 -0.23485796 0.99009901 1.01
0.45572269 -0.23074567 0.97276264 1.028
0.39226764 -0.22497703 0.97276264 1.028
0.39803627 -0.22497703 0.97276264 1.028
0.45572269 -0.22497703 0.97276264 1.028
0.46971592 -0.22898652 0.99009901 1.01
0.39226764 -0.21920839 0.97276264 1.028
0.39803627 -0.21920839 0.97276264 1.028
0.46725997 -0.21920839 0.97276264 1.028
0.39803627 -0.21343975 0.97276264 1.028
0.47302863 -0.21343975 0.97276264 1.028
0.49617296 -0.22118554 1.0080645 0.99199998
0.39803627 -0.20767111 0.97276264 1.028
0.49617296 -0.21520755 1.0080645 0.99199998
0.50215095 -0.21520755 1.0080645 0.99199998
0.39803627 -0.20190246 0.97276264 1.028
0.40380493 -0.20190246 0.97276264 1.028
0.49033454 -0.20190246 0.97276264 1.028
0.50494462 -0.20550072 0.99009901 1.01
0.39803627 -0.19613382 0.97276264 1.028
0.40380493 -0.19613382 0.97276264 1.028
0.50494462 -0.19962928 0.99009901 1.01
0.5108161 -0.19962928 0.99009901 1.01
0.0055734622 -0.18392424 0.93984962 1.064
0.011146924 -0.18392424 0.93984962 1.064
0.39803627 -0.19036518 0.97276264 1.028
0.40380493 -0.19036518 0.97276264 1.028
0.51668751 -0.19375782 0.99009901 1.01
0.52255899 -0.19375782 0.99009901 1.01
0.0055734622 -0.17835079 0.93984962 1.064
0.011146924 -0.17835079 0.93984962 1.064
0.022677489 -0.18141991 0.95602292 1.046
0.073701844 -0.18141991 0.95602292 1.046
0.079371214 -0.18141991 0.95602292 1.046
0.085040584 -0.18141991 0.95602292 1.046
0.40380493 -0.18459654 0.97276264 1.028
0.52255899 -0.18788637 0.99009901 1.01
0.5284304 -0.18788637 0.99009901 1.01
0.0055734622 -0.17277732 0.93984962 1.064
0.011338744 -0.17575054 0.95602292 1.046
0.085040584 -0.17575054 0.95602292 1.046
0.40380493 -0.1788279 0.97276264 1.028
0.43264812 -0.1788279 0.97276264 1.028
0.53430188 -0.18201493 0.99009901 1.01
0 -0.16720386 0.93984962 1.064
0.0055734622 -0.16720386 0.93984962 1.064
0.085040584 -0.17008117 0.95602292 1.046
0.090709955 -0.17008117 0.95602292 1.046
0.40380493 -0.17305925 0.97276264 1.028
0.40957355 -0.17305925 0.97276264 1.028
0.42274433 -0.17614348 0.99009901 1.01
0.43841678 -0.17305925 0.97276264 1.028
0.44418541 -0.17305925 0.97276264 1.028
0.54017335 -0.17614348 0.99009901 1.01
0.55595285 -0.17933963 1.0080645 0.99199998
0 -0.16163039 0.93984962 1.064
0.090709955 -0.1644118 0.95602292 1.046
0.41100144 -0.17027202 0.99009901 1.01
0.40957355 -0.16729061 0.97276264 1.028
0.44418541 -0.16729061 0.97276264 1.028
0.44995406 -0.16729061 0.97276264 1.028
0.54997486 -0.17336164 1.0080645 0.99199998
0.55595285 -0.17336164 1.0080645 0.99199998
-0.0055734622 -0.15605694 0.93984962 1.064
0 -0.15605694 0.93984962 1.064
0.089175396 -0.15605694 0.93984962 1.064
0.31748486 -0.15874243 0.95602292 1.046
0.44995406 -0.16152197 0.97276264 1.028
0.45572269 -0.16152197 0.97276264 1.028
0.46149135 -0.16152197 0.97276264 1.028
0.54997486 -0.16738366 1.0080645 0.99199998
-0.011146924 -0.15048347 0.93984962 1.064
-0.0055734622 -0.15048347 0.93984962 1.064
0.089175396 -0.15048347 0.93984962 1.064
0.094748855 -0.15048347 0.93984962 1.064
0.32315421 -0.15307306 0.95602292 1.046
0.46149135 -0.15575333 0.97276264 1.028
0.4755874 -0.15852913 0.99009901 1.01
0.54399687 -0.16140567 1.0080645 0.99199998
0.54997486 -0.16140567 1.0080645 0.99199998
-0.011146924 -0.14491001 0.93984962 1.064
-0.0055734622 -0.14491001 0.93984962 1.064
0.10944933 -0.2586984 1.6778523 0.59600002
0.094748855 -0.14491001 0.93984962 1.064
0.34054404 -0.15265767 0.99009901 1.01
0.4755874 -0.15265767 0.99009901 1.01
0.48145884 -0.15265767 0.99009901 1.01
0.53430188 -0.15265767 0.99009901 1.01
-0.017008116 -0.1417343 0.95602292 1.046
-0.011338744 -0.1417343 0.95602292 1.046
0.096379332 -0.1417343 0.95602292 1.046
0.1020487 -0.1417343 0.95602292 1.046
0.34611851 -0.14421605 0.97276264 1.028
0.48145884 -0.14678623 0.99009901 1.01
0.48733029 -0.14678623 0.99009901 1.01
0.53801888 -0.14944969 1.0080645 0.99199998
0.53430188 -0.14678623 0.99009901 1.01
-0.016720386 -0.13376309 0.93984962 1.064
-0.011146924 -0.13376309 0.93984962 1.064
0.1020487 -0.13606493 0.95602292 1.046
0.35188714 -0.1384474 0.97276264 1.028
0.49320173 -0.14091478 0.99009901 1.01
0.49907318 -0.14091478 0.99009901 1.01
0.53966975 -0.1488744 1.0460252 0.95599997
0.53801888 -0.1434717 1.0080645 0.99199998
-0.016720386 -0.12818962 0.93984962 1.064
-0.011146924 -0.12818962 0.93984962 1.064
0.1020487 -0.13039556 0.95602292 1.046
0.10771807 -0.13039556 0.95602292 1.046
0.35765579 -0.13267876 0.97276264 1.028
0.49907318 -0.13504334 0.99009901 1.01
0.53346664 -0.1426713 1.0460252 0.95599997
0.53966975 -0.1426713 1.0460252 0.95599997
0.54587281 -0.1426713 1.0460252 0.95599997
0.53204089 -0.13749371 1.0080645 0.99199998
-0.011146924 -0.12261616 0.93984962 1.064
-0.0055734622 -0.12261616 0.93984962 1.064
0.1020487 -0.12472619 0.95602292 1.046
0.53346664 -0.1364682 1.0460252 0.95599997
0.53966975 -0.1364682 1.0460252 0.95599997
0.54587281 -0.1364682 1.0460252 0.95599997
-0.011146924 -0.11704271 0.93984962 1.064
-0.0055734622 -0.11704271 0.93984962 1.064
0.096379332 -0.11905682 0.95602292 1.046
0.1020487 -0.11905682 0.95602292 1.046
-0.0055734622 -0.11146924 0.93984962 1.064
0 -0.11146924 0.93984962 1.064
0.096379332 -0.11338745 0.95602292 1.046
-0.0055734622 -0.10589578 0.93984962 1.064
0 -0.10589578 0.93984962 1.064
0.090709955 -0.10771807 0.95602292 1.046
0.096379332 -0.10771807 0.95602292 1.046
0.39226764 -0.10960419 0.97276264 1.028
0 -0.10032231 0.93984962 1.064
0.085040584 -0.1020487 0.95602292 1.046
0.090709955 -0.1020487 0.95602292 1.046
0.40380493 -0.10383555 0.97276264 1.028
0 -0.094748855 0.93984962 1.064
0.0055734622 -0.094748855 0.93984962 1.064
0.085040584 -0.096379332 0.95602292 1.046
0.090709955 -0.096379332 0.95602292 1.046
0 -0.090709955 0.95602292 1.046
0.0056693722 -0.090709955 0.95602292 1.046
0.08644554 -0.13831286 1.457726 0.68599999
0.079371214 -0.090709955 0.95602292 1.046
0.085040584 -0.090709955 0.95602292 1.046
0.0055734622 -0.083601929 0.93984962 1.064
0.011338744 -0.085040584 0.95602292 1.046
0.077800982 -0.12966831 1.457726 0.68599999
0.08644554 -0.12966831 1.457726 0.68599999
0.079371214 -0.085040584 0.95602292 1.046
0.085040584 -0.085040584 0.95602292 1.046
0.0055734622 -0.07802847 0.93984962 1.064
0.075811751 -0.11792938 1.4204545 0.704
0.084235273 -0.11792938 1.4204545 0.704
0.079371214 -0.079371214 0.95602292 1.046
-0.36659193 -0.0053910576 0.90909088 1.1
-0.36120087 -0.0053910576 0.90909088 1.1
-0.37198299 0 0.90909088 1.1
-0.36659193 0 0.90909088 1.1
-0.36120087 0 0.90909088 1.1
-0.35580981 0 0.90909088 1.1
-0.37198299 0.0053910576 0.90909088 1.1
-0.35580981 0.0053910576 0.90909088 1.1
-0.37198299 0.010782115 0.90909088 1.1
-0.35041875 0.010782115 0.90909088 1.1
-0.37737405 0.016173173 0.90909088 1.1
-0.37198299 0.016173173 0.90909088 1.1
-0.35580981 0.016173173 0.90909088 1.1
-0.34502769 0.016173173 0.90909088 1.1
-0.37737405 0.02156423 0.90909088 1.1
-0.37198299 0.02156423 0.90909088 1.1
-0.33963662 0.02156423 0.90909088 1.1
-0.38276508 0.026955288 0.90909088 1.1
-0.37737405 0.026955288 0.90909088 1.1
-0.35041875 0.026955288 0.90909088 1.1
-0.33963662 0.026955288 0.90909088 1.1
-0.33424556 0.026955288 0.90909088 1.1
-0.38276508 0.032346345 0.90909088 1.1
-0.37737405 0.032346345 0.90909088 1.1
-0.33424556 0.032346345 0.90909088 1.1
-0.32885453 0.032346345 0.90909088 1.1
-0.38276508 0.037737403 0.90909088 1.1
-0.32885453 0.037737403 0.90909088 1.1
-0.32346347 0.037737403 0.90909088 1.1
-0.38815615 0.043128461 0.90909088 1.1
-0.38276508 0.043128461 0.90909088 1.1
-0.32346347 0.043128461 0.90909088 1.1
-0.31807241 0.043128461 0.90909088 1.1
-0.38815615 0.048519518 0.90909088 1.1
-0.38276508 0.048519518 0.90909088 1.1
-0.32346347 0.048519518 0.90909088 1.1
-0.31807241 0.048519518 0.90909088 1.1
-0.31268135 0.048519518 0.90909088 1.1
-0.38815615 0.053910576 0.90909088 1.1
-0.31807241 0.053910576 0.90909088 1.1
-0.31268135 0.053910576 0.90909088 1.1
-0.39354721 0.059301633 0.90909088 1.1
-0.38815615 0.059301633 0.90909088 1.1
-0.31268135 0.059301633 0.90909088 1.1
-0.30729029 0.059301633 0.90909088 1.1
-0.39354721 0.064692691 0.90909088 1.1
-0.30729029 0.064692691 0.90909088 1.1
-0.30189922 0.064692691 0.90909088 1.1
-0.39893827 0.070083752 0.90909088 1.1
-0.39354721 0.070083752 0.90909088 1.1
-0.30189922 0.070083752 0.90909088 1.1
-0.30144086 0.071249656 0.92421442 1.082
0.022677489 0.073701844 0.95602292 1.046
0.028346863 0.073701844 0.95602292 1.046
0.034016233 0.073701844 0.95602292 1.046
0.039685607 0.073701844 0.95602292 1.046
-0.39893827 0.075474806 0.90909088 1.1
-0.39354721 0.075474806 0.90909088 1.1
-0.30189922 0.075474806 0.90909088 1.1
-0.29650816 0.075474806 0.90909088 1.1
-0.2959601 0.0767304 0.92421442 1.082
0.011338744 0.079371214 0.95602292 1.046
0.017008116 0.079371214 0.95602292 1.046
0.022677489 0.079371214 0.95602292 1.046
0.039685607 0.079371214 0.95602292 1.046
-0.39893827 0.080865867 0.90909088 1.1
-0.2911171 0.080865867 0.90909088 1.1
-0.29047936 0.082211144 0.92421442 1.082
0 0.086529627 0.97276264 1.028
0.0056693722 0.085040584 0.95602292 1.046
0.011338744 0.085040584 0.95602292 1.046
0.039685607 0.085040584 0.95602292 1.046
0.045354977 0.085040584 0.95602292 1.046
-0.40432933 0.086256921 0.90909088 1.1
-0.39893827 0.086256921 0.90909088 1.1
-0.2911171 0.086256921 0.90909088 1.1
-0.28572607 0.086256921 0.90909088 1.1
-0.28499863 0.087691888 0.92421442 1.082
-0.011537284 0.092298269 0.97276264 1.028
-0.0057686418 0.092298269 0.97276264 1.028
0 0.092298269 0.97276264 1.028
0.0056693722 0.090709955 0.95602292 1.046
0.039014235 0.089175396 0.93984962 1.064
0.044587698 0.089175396 0.93984962 1.064
-0.40432933 0.091647983 0.90909088 1.1
-0.28572607 0.091647983 0.90909088 1.1
-0.28033501 0.091647983 0.90909088 1.1
-0.27494395 0.091647983 0.90909088 1.1
-0.023074567 0.098066911 0.97276264 1.028
-0.017614348 0.099814638 0.99009901 1.01
-0.011537284 0.098066911 0.97276264 1.028
-0.0057686418 0.098066911 0.97276264 1.028
0.045354977 0.096379332 0.95602292 1.046
0.051024351 0.096379332 0.95602292 1.046
-0.40972039 0.097039036 0.90909088 1.1
-0.40432933 0.097039036 0.90909088 1.1
-0.28572607 0.097039036 0.90909088 1.1
-0.28033501 0.097039036 0.90909088 1.1
-0.27494395 0.097039036 0.90909088 1.1
-0.034611851 0.10383555 0.97276264 1.028
-0.028843209 0.10383555 0.97276264 1.028
-0.023074567 0.10383555 0.97276264 1.028
-0.017614348 0.10568608 0.99009901 1.01
0.045354977 0.1020487 0.95602292 1.046
0.051024351 0.1020487 0.95602292 1.046
-0.40972039 0.1024301 0.90909088 1.1
-0.40432933 0.1024301 0.90909088 1.1
-0.045354977 0.10771807 0.95602292 1.046
-0.040380493 0.10960419 0.97276264 1.028
-0.034611851 0.10960419 0.97276264 1.028
-0.028843209 0.10960419 0.97276264 1.028
0.051024351 0.10771807 0.95602292 1.046
0.056693725 0.10771807 0.95602292 1.046
-0.40972039 0.10782115 0.90909088 1.1
-0.056693725 0.11338745 0.95602292 1.046
-0.051024351 0.11338745 0.95602292 1.046
-0.045354977 0.11338745 0.95602292 1.046
-0.040380493 0.11537284 0.97276264 1.028
0.051024351 0.11338745 0.95602292 1.046
0.056693725 0.11338745 0.95602292 1.046
-0.41511145 0.11321221 0.90909088 1.1
-0.40972039 0.11321221 0.90909088 1.1
-0.068032466 0.11905682 0.95602292 1.046
-0.062363096 0.11905682 0.95602292 1.046
-0.056693725 0.11905682 0.95602292 1.046
-0.051024351 0.11905682 0.95602292 1.046
0.056693725 0.11905682 0.95602292 1.046
0.062363096 0.11905682 0.95602292 1.046
-0.42050251 0.11860327 0.90909088 1.1
-0.41511145 0.11860327 0.90909088 1.1
-0.40972039 0.11860327 0.90909088 1.1
-0.47336119 0.14463814 1.1086475 0.90200001
-0.46678671 0.14463814 1.1086475 0.90200001
-0.47934347 0.1506508 1.1547344 0.86600006
-0.079371214 0.12472619 0.95602292 1.046
-0.074992344 0.12691012 0.97276264 1.028
-0.068032466 0.12472619 0.95602292 1.046
-0.062363096 0.12472619 0.95602292 1.046
0.056693725 0.12472619 0.95602292 1.046
0.062363096 0.12472619 0.95602292 1.046
-0.41511145 0.12399433 0.90909088 1.1
-0.090709955 0.13039556 0.95602292 1.046
-0.085040584 0.13039556 0.95602292 1.046
-0.079371214 0.13039556 0.95602292 1.046
-0.074992344 0.13267876 0.97276264 1.028
0.062363096 0.13039556 0.95602292 1.046
0.068032466 0.13039556 0.95602292 1.046
-0.096379332 0.13606493 0.95602292 1.046
-0.090709955 0.13606493 0.95602292 1.046
-0.085040584 0.13606493 0.95602292 1.046
0.062363096 0.13606493 0.95602292 1.046
0.068032466 0.13606493 0.95602292 1.046
-0.10589578 0.13933656 0.93984962 1.064
-0.1020487 0.1417343 0.95602292 1.046
-0.096379332 0.1417343 0.95602292 1.046
-0.092298269 0.14421605 0.97276264 1.028
0.062363096 0.1417343 0.95602292 1.046
0.068032466 0.1417343 0.95602292 1.046
0.073701844 0.1417343 0.95602292 1.046
-0.11905682 0.14740369 0.95602292 1.046
-0.11338745 0.14740369 0.95602292 1.046
-0.10589578 0.14491001 0.93984962 1.064
-0.1020487 0.14740369 0.95602292 1.046
0.056693725 0.14740369 0.95602292 1.046
0.062363096 0.14740369 0.95602292 1.046
-0.13039556 0.15307306 0.95602292 1.046
-0.12472619 0.15307306 0.95602292 1.046
-0.11905682 0.15307306 0.95602292 1.046
0.045354977 0.15307306 0.95602292 1.046
0.051024351 0.15307306 0.95602292 1.046
0.056693725 0.15307306 0.95602292 1.046
-0.1417343 0.15874243 0.95602292 1.046
-0.13606493 0.15874243 0.95602292 1.046
-0.13039556 0.15874243 0.95602292 1.046
-0.12472619 0.15874243 0.95602292 1.046
0.034016233 0.15874243 0.95602292 1.046
0.039685607 0.15874243 0.95602292 1.046
0.045354977 0.15874243 0.95602292 1.046
-0.15307306 0.1644118 0.95602292 1.046
-0.14740369 0.1644118 0.95602292 1.046
-0.1417343 0.1644118 0.95602292 1.046
0.022677489 0.1644118 0.95602292 1.046
0.028346863 0.1644118 0.95602292 1.046
0.034016233 0.1644118 0.95602292 1.046
-0.16163039 0.16720386 0.93984962 1.064
-0.15874243 0.17008117 0.95602292 1.046
-0.15307306 0.17008117 0.95602292 1.046
0.011338744 0.17008117 0.95602292 1.046
0.017008116 0.17008117 0.95602292 1.046
0.022677489 0.17008117 0.95602292 1.046
-0.17575054 0.17575054 0.95602292 1.046
-0.16720386 0.17277732 0.93984962 1.064
-0.16163039 0.17277732 0.93984962 1.064
0 0.17277732 0.93984962 1.064
0.0055734622 0.17277732 0.93984962 1.064
0.011338744 0.17575054 0.95602292 1.046
-0.18086451 0.17538378 0.92421442 1.082
-0.17538378 0.17538378 0.92421442 1.082
-0.17575054 0.18141991 0.95602292 1.046
-0.16720386 0.17835079 0.93984962 1.064
-0.011146924 0.17835079 0.93984962 1.064
-0.0055734622 0.17835079 0.93984962 1.064
0 0.17835079 0.93984962 1.064
-0.191826 0.18086451 0.92421442 1.082
-0.18634525 0.18086451 0.92421442 1.082
-0.18086451 0.18086451 0.92421442 1.082
-0.17538378 0.18086451 0.92421442 1.082
-0.021922972 0.18086451 0.92421442 1.082
-0.016442228 0.18086451 0.92421442 1.082
-0.011146924 0.18392424 0.93984962 1.064
-0.19730674 0.18634525 0.92421442 1.082
-0.032884456 0.18634525 0.92421442 1.082
-0.027403714 0.18634525 0.92421442 1.082
-0.021922972 0.18634525 0.92421442 1.082
-0.20278749 0.191826 0.92421442 1.082
-0.19730674 0.191826 0.92421442 1.082
-0.044587698 0.19507118 0.93984962 1.064
-0.0383652 0.191826 0.92421442 1.082
-0.032884456 0.191826 0.92421442 1.082
-0.19730674 0.19730674 0.92421442 1.082
-0.050161157 0.20064463 0.93984962 1.064
-0.044587698 0.20064463 0.93984962 1.064
-0.0383652 0.19730674 0.92421442 1.082
-0.19730674 0.20278749 0.92421442 1.082
-0.191826 0.20278749 0.92421442 1.082
-0.061308082 0.20621809 0.93984962 1.064
-0.055734619 0.20621809 0.93984962 1.064
-0.050161157 0.20621809 0.93984962 1.064
-0.191826 0.20826823 0.92421442 1.082
-0.072455004 0.21179156 0.93984962 1.064
-0.066881545 0.21179156 0.93984962 1.064
-0.061308082 0.21179156 0.93984962 1.064
0.35765579 0.21920839 0.97276264 1.028
0.35717046 0.21543615 0.95602292 1.046
0.31908992 0.18654487 0.82781452 1.2080001
0.32399899 0.18654487 0.82781452 1.2080001
0.32890806 0.18654487 0.82781452 1.2080001
0.39803627 0.21920839 0.97276264 1.028
-0.191826 0.21374896 0.92421442 1.082
-0.18634525 0.21374896 0.92421442 1.082
-0.083601929 0.21736503 0.93984962 1.064
-0.07802847 0.21736503 0.93984962 1.064
-0.072455004 0.21736503 0.93984962 1.064
0.35228696 0.22898652 0.99009901 1.01
0.35188714 0.22497703 0.97276264 1.028
0.32399899 0.19145395 0.82781452 1.2080001
0.41100144 0.22898652 0.99009901 1.01
0.41687289 0.22898652 0.99009901 1.01
-0.18634525 0.21922971 0.92421442 1.082
-0.094748855 0.22293848 0.93984962 1.064
-0.089175396 0.22293848 0.93984962 1.064
-0.083601929 0.22293848 0.93984962 1.064
0.34641549 0.23485796 0.99009901 1.01
0.35228696 0.23485796 0.99009901 1.01
0.41687289 0.23485796 0.99009901 1.01
0.42274433 0.23485796 0.99009901 1.01
0.42861578 0.23485796 0.99009901 1.01
-0.18634525 0.22471045 0.92421442 1.082
-0.18086451 0.22471045 0.92421442 1.082
-0.10413411 0.22471045 0.92421442 1.082
-0.098653369 0.22471045 0.92421442 1.082
-0.094748855 0.22851194 0.93984962 1.064
0.34054404 0.24072942 0.99009901 1.01
0.34641549 0.24072942 0.99009901 1.01
0.42274433 0.24072942 0.99009901 1.01
0.42861578 0.24072942 0.99009901 1.01
-0.18086451 0.2301912 0.92421442 1.082
-0.1150956 0.2301912 0.92421442 1.082
-0.10961486 0.2301912 0.92421442 1.082
-0.10413411 0.2301912 0.92421442 1.082
0.3346726 0.24660087 0.99009901 1.01
0.34054404 0.24660087 0.99009901 1.01
0.42861578 0.24660087 0.99009901 1.01
0.43448725 0.24660087 0.99009901 1.01
-0.18086451 0.23567194 0.92421442 1.082
-0.17538378 0.23567194 0.92421442 1.082
-0.12057634 0.23567194 0.92421442 1.082
-0.1150956 0.23567194 0.92421442 1.082
0.32880116 0.25247231 0.99009901 1.01
0.3346726 0.25247231 0.99009901 1.01
0.43448725 0.25247231 0.99009901 1.01
0.4403587 0.25247231 0.99009901 1.01
-0.17538378 0.24115269 0.92421442 1.082
-0.13153782 0.24115269 0.92421442 1.082
-0.12818962 0.24523233 0.93984962 1.064
0.32304394 0.25382024 0.97276264 1.028
0.4403587 0.25834376 0.99009901 1.01
-0.17538378 0.24663343 0.92421442 1.082
-0.16990303 0.24663343 0.92421442 1.082
-0.15852913 0.2642152 0.99009901 1.01
-0.14491001 0.2508058 0.93984962 1.064
-0.13933656 0.2508058 0.93984962 1.064
0.31727529 0.25958887 0.97276264 1.028
0.32304394 0.25958887 0.97276264 1.028
0.32881257 0.25958887 0.97276264 1.028
0.4403587 0.2642152 0.99009901 1.01
0.44623014 0.2642152 0.99009901 1.01
-0.16990303 0.25211418 0.92421442 1.082
-0.17008117 0.26079112 0.95602292 1.046
-0.1644118 0.26079112 0.95602292 1.046
-0.16440058 0.27008668 0.99009901 1.01
-0.15852913 0.27008668 0.99009901 1.01
0.31727529 0.26535752 0.97276264 1.028
0.44623014 0.27008668 0.99009901 1.01
-0.17575054 0.26646051 0.95602292 1.046
-0.17008117 0.26646051 0.95602292 1.046
-0.1644118 0.26646051 0.95602292 1.046
0.32292971 0.27595812 0.99009901 1.01
0.32880116 0.27595812 0.99009901 1.01
0.44623014 0.27595812 0.99009901 1.01
0.31150666 0.27689481 0.97276264 1.028
0.31727529 0.27689481 0.97276264 1.028
0.43841678 0.27689481 0.97276264 1.028
0.31150666 0.28266343 0.97276264 1.028
0.31727529 0.28266343 0.97276264 1.028
0.43841678 0.28266343 0.97276264 1.028
0.31150666 0.28843209 0.97276264 1.028
0.31727529 0.28843209 0.97276264 1.028
0.43841678 0.28843209 0.97276264 1.028
0.31150666 0.29420072 0.97276264 1.028
0.31727529 0.29420072 0.97276264 1.028
0.32304394 0.29420072 0.97276264 1.028
0.43841678 0.29420072 0.97276264 1.028
0.31727529 0.29996938 0.97276264 1.028
0.32304394 0.29996938 0.97276264 1.028
0.43841678 0.29996938 0.97276264 1.028
0.31727529 0.305738 0.97276264 1.028
0.32304394 0.305738 0.97276264 1.028
0.43264812 0.305738 0.97276264 1.028
0.43841678 0.305738 0.97276264 1.028
0.32292971 0.31705827 0.99009901 1.01
0.32880116 0.31705827 0.99009901 1.01
0.43264812 0.31150666 0.97276264 1.028
0.32880116 0.32292971 0.99009901 1.01
0.3346726 0.32292971 0.99009901 1.01
0.4268795 0.31727529 0.97276264 1.028
0.43264812 0.31727529 0.97276264 1.028
0.32304394 0.32304394 0.97276264 1.028
0.3346726 0.32880116 0.99009901 1.01
0.4268795 0.32304394 0.97276264 1.028
0.3346726 0.3346726 0.99009901 1.01
0.34054404 0.3346726 0.99009901 1.01
0.35270128 0.3407453 1.0080645 0.99199998
0.42111084 0.32881257 0.97276264 1.028
0.34054404 0.34054404 0.99009901 1.01
0.34641549 0.34054404 0.99009901 1.01
0.35867926 0.34672329 1.0080645 0.99199998
0.40957355 0.33458123 0.97276264 1.028
0.41534221 0.33458123 0.97276264 1.028
0.35270128 0.35270128 1.0080645 0.99199998
0.35867926 0.35270128 1.0080645 0.99199998
0.3713963 0.35921937 1.0266941 0.97399998
0.50040424 0.44065449 1.2594459 0.79399997
0.40380493 0.34034985 0.97276264 1.028
0.40957355 0.34034985 0.97276264 1.028
0.3713963 0.36530784 1.0266941 0.97399998
0.37748477 0.36530784 1.0266941 0.97399998
0.48546684 0.44812322 1.2594459 0.79399997
0.49293554 0.44812322 1.2594459 0.79399997
0.50040424 0.44812322 1.2594459 0.79399997
0.49661469 0.43818945 1.2315271 0.81199998
0.39803627 0.34611851 0.97276264 1.028
