# .PCD v0.7 - Point Cloud Data file format
VERSION 0.7
FIELDS x y z intensity
SIZE 4 4 4 4
TYPE F F F F
COUNT 1 1 1 1
WIDTH 60
HEIGHT 1
VIEWPOINT 0 0 0 1 0 0 0
POINTS 60
DATA ascii
2.268831 -1.7016232 2.1276598 0.46999994
1.3496244 -0.53984976 1.2886598 0.77599996
1.374163 -0.53984976 1.2886598 0.77599996
1.3987017 -0.53984976 1.2886598 0.77599996
1.374163 -0.51531112 1.2886598 0.77599996
1.3987017 -0.51531112 1.2886598 0.77599996
1.4232402 -0.51531112 1.2886598 0.77599996
1.4477788 -0.51531112 1.2886598 0.77599996
-1.3088717 -0.042221669 1.1086475 0.90200001
0.83849591 0.13524128 1.4204545 0.704
0.8655442 0.13524128 1.4204545 0.704
0.8655442 0.16228953 1.4204545 0.704
1.4353245 1.0525713 2.5125628 0.398
-0.96125335 1.1901232 2.403846 0.41600001
-0.86970544 1.1901232 2.403846 0.41600001
-0.82393146 1.1901232 2.403846 0.41600001
-0.5950616 1.1901232 2.403846 0.41600001
1.580559 1.0160737 1.9762846 0.50599998
1.6181914 1.0160737 1.9762846 0.50599998
1.3738335 1.0223877 1.6778523 0.59600002
1.3535861 1.0782804 1.2048193 0.82999998
1.2455392 1.0766525 1.1086475 0.90200001
1.2211701 1.0762855 1.0869566 0.9199999
1.2418679 1.0762855 1.0869566 0.9199999
-0.1916977 1.6933297 1.6778523 0.59600002
-0.15974808 1.6933297 1.6778523 0.59600002
1.2211701 1.0969833 1.0869566 0.9199999
-0.1916977 1.7252793 1.6778523 0.59600002
-0.15974808 1.7252793 1.6778523 0.59600002
1.1534666 1.0752654 1.0266941 0.97399998
1.1534666 1.0948157 1.0266941 0.97399998
1.1730168 1.0948157 1.0266941 0.97399998
0.38420123 0.68435848 0.63051707 1.5859998
1.1325366 1.0941455 1.0080645 0.99199998
1.1517322 1.0941455 1.0080645 0.99199998
0.37155068 0.67343563 0.60975611 1.64
1.1325366 1.1133411 1.0080645 0.99199998
0.37155068 0.68504661 0.60975611 1.64
1.0928758 1.0928758 0.97276264 1.028
1.1113992 1.0928758 0.97276264 1.028
0.37493142 0.68169349 0.59665871 1.676
1.1113992 1.1113992 0.97276264 1.028
1.0922737 1.1104783 0.95602292 1.046
1.0737954 1.1095886 0.93984962 1.064
1.0737954 1.1274852 0.93984962 1.064
1.0846694 1.9283012 1.5822786 0.63199997
1.1147991 1.9283012 1.5822786 0.63199997
0.077197194 1.6983383 1.3513515 0.73999989
0.10292959 1.6983383 1.3513515 0.73999989
0.45822927 0.86554414 0.66844916 1.4960001
0.45822927 0.87827277 0.66844916 1.4960001
0.39866197 1.6415493 1.2315271 0.81199998
0.95412868 1.4210428 1.0660981 0.93799996
0.39001632 1.6288917 1.2048193 0.82999998
0.93616396 1.4142052 1.0460252 0.95599997
0.39001632 1.6518338 1.2048193 0.82999998
0.41295844 1.6518338 1.2048193 0.82999998
0.43222639 0.86445278 0.63051707 1.5859998
0.44933227 0.8743763 0.6377551 1.568
0.95608234 1.4341235 1.0460252 0.95599997
