# .PCD v0.7 - Point Cloud Data file format
VERSION 0.7
FIELDS x y z intensity
SIZE 4 4 4 4
TYPE F F F F
COUNT 1 1 1 1
WIDTH 1094
HEIGHT 1
VIEWPOINT 0 0 0 1 0 0 0
POINTS 1094
DATA ascii
-0.0030153375 -0.241227 0.50847459 1.9666666
0 -0.241227 0.50847459 1.9666666
0.059799965 -0.23919986 0.50420165 1.9833335
-0.030210266 -0.26517901 0.56603771 1.7666668
-0.019232962 -0.253234 0.54054052 1.85
-0.015743798 -0.24875198 0.53097343 1.8833334
0 -0.23620987 0.50420165 1.9833335
0.0029899983 -0.23620987 0.50420165 1.9833335
0.062789962 -0.23620987 0.50420165 1.9833335
0.065779962 -0.23620987 0.50420165 1.9833335
-0.026356282 -0.25697374 0.55555552 1.8000001
-0.25115985 -0.23022987 0.50420165 1.9833335
-0.24816985 -0.23022987 0.50420165 1.9833335
-0.24937098 -0.23416543 0.51282048 1.9500002
-0.25553614 -0.24906687 0.54545456 1.8333333
-0.25230151 -0.24906687 0.54545456 1.8333333
-0.022642443 -0.24906687 0.54545456 1.8333333
-0.0092819948 -0.23823787 0.52173913 1.9166666
-0.25877079 -0.24583225 0.54545456 1.8333333
-0.25230151 -0.24583225 0.54545456 1.8333333
-0.24906687 -0.24583225 0.54545456 1.8333333
-0.24583225 -0.24583225 0.54545456 1.8333333
-0.23400104 -0.24361752 0.54054052 1.85
-0.25364661 -0.26773807 0.59405941 1.6833333
-0.019407809 -0.24583225 0.54545456 1.8333333
-0.016027469 -0.24361752 0.54054052 1.85
-0.0091233281 -0.23112431 0.51282048 1.9500002
-0.006030675 -0.22916566 0.50847459 1.9666666
-0.24583225 -0.24259761 0.54545456 1.8333333
-0.24041203 -0.24041203 0.54054052 1.85
-0.23720653 -0.24041203 0.54054052 1.85
-0.25012374 -0.2642152 0.59405941 1.6833333
-0.27627584 -0.31394982 0.70588231 1.4166667
-0.27208984 -0.31394982 0.70588231 1.4166667
-0.26478869 -0.31029925 0.69767439 1.4333334
-0.012164437 -0.22808321 0.51282048 1.9500002
-0.23400104 -0.23720653 0.54054052 1.85
-0.25364661 -0.26069236 0.59405941 1.6833333
-0.26478869 -0.30616194 0.69767439 1.4333334
-0.26065138 -0.30616194 0.69767439 1.4333334
-0.25651404 -0.30616194 0.69767439 1.4333334
-0.28877321 -0.38159317 0.86956525 1.15
-0.006030675 -0.22313498 0.50847459 1.9666666
-0.0029899983 -0.22125988 0.50420165 1.9833335
0 -0.22125988 0.50420165 1.9833335
-0.26065138 -0.3020246 0.69767439 1.4333334
-0.25651404 -0.3020246 0.69767439 1.4333334
-0.24947584 -0.29855305 0.68965513 1.45
-0.24259761 -0.29516041 0.68181819 1.4666667
-0.27845988 -0.3764365 0.86956525 1.15
-0.28033501 -0.39354721 0.90909088 1.1
-0.0029899983 -0.21826987 0.50420165 1.9833335
0 -0.21826987 0.50420165 1.9833335
0.0029899983 -0.21826987 0.50420165 1.9833335
-0.27627584 -0.30139184 0.70588231 1.4166667
-0.23068988 -0.28151986 0.65934068 1.5166667
-0.22677989 -0.28151986 0.65934068 1.5166667
-0.22286989 -0.28151986 0.65934068 1.5166667
-0.28146148 -0.38236278 0.89552236 1.1166667
-0.34839711 -0.53371471 1.25 0.80000001
-0.34066901 -0.54507041 1.2765958 0.7833333
-0.33309859 -0.54507041 1.2765958 0.7833333
-0.0029899983 -0.21527988 0.50420165 1.9833335
0 -0.21527988 0.50420165 1.9833335
-0.27627584 -0.29720584 0.70588231 1.4166667
-0.22044738 -0.27459234 0.65217388 1.5333334
-0.21657988 -0.27459234 0.65217388 1.5333334
-0.3409844 -0.52630204 1.25 0.80000001
-0.3335717 -0.52630204 1.25 0.80000001
-0.33260486 -0.54918474 1.3043479 0.76666665
-0.32486984 -0.54918474 1.3043479 0.76666665
-0.31713486 -0.54918474 1.3043479 0.76666665
-0.31627542 -0.56138885 1.3333334 0.75
-0.30836853 -0.56138885 1.3333334 0.75
-0.30046165 -0.56138885 1.3333334 0.75
-0.28464785 -0.56138885 1.3333334 0.75
-0.0029899983 -0.21228988 0.50420165 1.9833335
-0.26592103 -0.26217565 0.63157892 1.5833334
-0.22818238 -0.27072486 0.65217388 1.5333334
-0.30046165 -0.55348194 1.3333334 0.75
-0.29255474 -0.55348194 1.3333334 0.75
-0.27845988 -0.54144973 1.3043479 0.76666665
-0.27674097 -0.55348194 1.3333334 0.75
-0.26883408 -0.55348194 1.3333334 0.75
-0.25525489 -0.54144973 1.3043479 0.76666665
-0.0089699952 -0.20929988 0.50420165 1.9833335
-0.25414985 -0.20630988 0.50420165 1.9833335
-0.25115985 -0.20630988 0.50420165 1.9833335
-0.26592103 -0.25843027 0.63157892 1.5833334
-0.22190289 -0.26398793 0.64516127 1.5500001
-0.21807697 -0.26398793 0.64516127 1.5500001
-0.2119718 -0.26117954 0.63829786 1.5666667
-0.33402556 -0.50103831 1.2244898 0.81666666
-0.27674097 -0.54557508 1.3333334 0.75
-0.26883408 -0.54557508 1.3333334 0.75
-0.24751988 -0.53371477 1.3043479 0.76666665
-0.46255276 -1.2275438 3 0.33333334
-0.44476229 -1.2275438 3 0.33333334
-0.25115985 -0.20331989 0.50420165 1.9833335
-0.20384938 -0.25203195 0.625 1.6
-0.19807969 -0.24943368 0.61855668 1.6166667
-0.19441155 -0.24943368 0.61855668 1.6166667
-0.18879706 -0.24688844 0.6122449 1.6333333
-0.27072486 -0.52597976 1.3043479 0.76666665
-0.26298988 -0.52597976 1.3043479 0.76666665
-0.24751988 -0.52597976 1.3043479 0.76666665
-0.23978488 -0.52597976 1.3043479 0.76666665
-0.42697179 -1.2097534 3 0.33333334
-0.4091813 -1.2097534 3 0.33333334
-0.3913908 -1.2097534 3 0.33333334
-0.24225351 -0.5072183 1.2765958 0.7833333
-0.23468308 -0.5072183 1.2765958 0.7833333
-0.3736003 -1.191963 3 0.33333334
-0.35580981 -1.191963 3 0.33333334
-0.25716949 -0.23250939 0.59405941 1.6833333
-0.35580984 -0.49964786 1.2765958 0.7833333
-0.3409844 -0.4892385 1.25 0.80000001
-0.3335717 -0.4892385 1.25 0.80000001
0.098415487 -0.49964786 1.2765958 0.7833333
-0.24816985 -0.19434988 0.50420165 1.9833335
-0.25716949 -0.22898652 0.59405941 1.6833333
-1.08522 -1.156382 3 0.33333334
-1.0674294 -1.156382 3 0.33333334
-0.33402556 -0.47199261 1.2244898 0.81666666
-0.32676414 -0.47199261 1.2244898 0.81666666
-0.31950271 -0.47199261 1.2244898 0.81666666
-0.241227 -0.39199388 1.0169492 0.98333329
-0.23519632 -0.39199388 1.0169492 0.98333329
0.11119057 -0.4818258 1.25 0.80000001
-0.24816985 -0.19135989 0.50420165 1.9833335
-0.23948738 -0.21895988 0.57692307 1.7333333
-1.08522 -1.1385914 3 0.33333334
-1.0674294 -1.1385914 3 0.33333334
-0.32676414 -0.46473119 1.2244898 0.81666666
-0.31950271 -0.46473119 1.2244898 0.81666666
-0.25152072 -0.3926177 1.0344827 0.9666667
-0.241227 -0.3859632 1.0169492 0.98333329
-0.23519632 -0.3859632 1.0169492 0.98333329
-0.22916566 -0.3859632 1.0169492 0.98333329
-0.22698212 -0.3926177 1.0344827 0.9666667
-0.22472197 -0.39950573 1.0526315 0.95000005
-0.22642444 -0.41403326 1.0909091 0.91666663
-0.2134859 -0.41403326 1.0909091 0.91666663
0.10377786 -0.4744131 1.25 0.80000001
0.11119057 -0.4744131 1.25 0.80000001
-0.24816985 -0.1883699 0.50420165 1.9833335
-0.33402556 -0.45746976 1.2244898 0.81666666
-0.32676414 -0.45746976 1.2244898 0.81666666
-0.31950271 -0.45746976 1.2244898 0.81666666
-0.241227 -0.37993252 1.0169492 0.98333329
-0.23519632 -0.37993252 1.0169492 0.98333329
-0.22916566 -0.37993252 1.0169492 0.98333329
-0.22698212 -0.38648307 1.0344827 0.9666667
-0.21995516 -0.40756398 1.0909091 0.91666663
-0.20331989 -0.40028605 1.0714285 0.93333334
-0.19351059 -0.39326346 1.0526315 0.95000005
-0.18726832 -0.39326346 1.0526315 0.95000005
-0.077833399 -0.2335002 0.625 1.6
-0.065352827 -0.22873488 0.6122449 1.6333333
0.10377786 -0.4670004 1.25 0.80000001
0.11119057 -0.4670004 1.25 0.80000001
-0.25076121 -0.21009724 0.5714286 1.7499999
-0.32676414 -0.45020834 1.2244898 0.81666666
-0.31950271 -0.45020834 1.2244898 0.81666666
-0.30599642 -0.44120416 1.1999999 0.83333337
-0.15248993 -0.31514585 0.85714287 1.1666666
-0.14331229 -0.30639178 0.83333331 1.2
-0.074127048 -0.22979385 0.625 1.6
-0.06898354 -0.22510417 0.6122449 1.6333333
-0.046993747 -0.20811518 0.56603771 1.7666668
0.11119057 -0.45958769 1.25 0.80000001
-0.31950271 -0.44294691 1.2244898 0.81666666
-0.30599642 -0.43408796 1.1999999 0.83333337
-0.19630885 -0.37421376 1.0344827 0.9666667
-0.05988878 -0.21489504 0.59405941 1.6833333
0.10674294 -0.43408796 1.1999999 0.83333337
-0.3113336 -0.53371471 1.5 0.66666669
-0.17790492 -0.31394985 0.88235295 1.1333333
-0.16265592 -0.30497986 0.85714287 1.1666666
-0.15319589 -0.29650816 0.83333331 1.2
-0.1462232 -0.2924464 0.82191777 1.2166667
-0.13943899 -0.28849444 0.8108108 1.2333333
-0.13108784 -0.2809025 0.78947371 1.2666667
-0.12316494 -0.27369988 0.76923078 1.3
-0.046993747 -0.20140177 0.56603771 1.7666668
0.06187997 -0.46409979 1.3043479 0.76666665
0.068133801 -0.45422533 1.2765958 0.7833333
0.075704224 -0.45422533 1.2765958 0.7833333
0.083274648 -0.45422533 1.2765958 0.7833333
0.092510551 -0.42697176 1.1999999 0.83333337
0.14232393 -0.4744131 1.3333334 0.75
0.15023082 -0.4744131 1.3333334 0.75
0.16243492 -0.46409979 1.3043479 0.76666665
-0.32912409 -0.52481949 1.5 0.66666669
-0.1375798 -0.27990374 0.80000001 1.25
-0.1293854 -0.27263352 0.77922082 1.2833333
-0.12316494 -0.26913822 0.76923078 1.3
-0.11710196 -0.26573136 0.75949365 1.3166667
-0.10981784 -0.25917011 0.74074072 1.35
-0.10413946 -0.25600952 0.73170733 1.3666667
-0.097424112 -0.24991402 0.71428567 1.4000001
-0.031768732 -0.18743552 0.53571427 1.8666667
-0.02859186 -0.18743552 0.53571427 1.8666667
0.060563378 -0.44665492 1.2765958 0.7833333
0.068133801 -0.44665492 1.2765958 0.7833333
0.075704224 -0.44665492 1.2765958 0.7833333
0.083274648 -0.44665492 1.2765958 0.7833333
0.13922994 -0.45636478 1.3043479 0.76666665
0.14696494 -0.45636478 1.3043479 0.76666665
0.15469992 -0.45636478 1.3043479 0.76666665
-0.31311262 -0.41273937 1.1999999 0.83333337
-0.30599642 -0.41273937 1.1999999 0.83333337
-0.32912409 -0.51592422 1.5 0.66666669
-0.11710196 -0.26122746 0.75949365 1.3166667
-0.10981784 -0.2547774 0.74074072 1.35
-0.10413946 -0.25167036 0.73170733 1.3666667
-0.097424112 -0.2456782 0.71428567 1.4000001
-0.089974888 -0.23720653 0.68965513 1.45
-0.084909163 -0.23451102 0.68181819 1.4666667
-0.07819996 -0.22677989 0.65934068 1.5166667
-0.072692327 -0.22190289 0.64516127 1.5500001
-0.068133794 -0.21954222 0.63829786 1.5666667
-0.063671231 -0.21723124 0.63157892 1.5833334
0.052992955 -0.4390845 1.2765958 0.7833333
0.060563378 -0.4390845 1.2765958 0.7833333
0.068133801 -0.4390845 1.2765958 0.7833333
0.085885122 -0.35580981 1.0344827 0.9666667
0.12112676 -0.4390845 1.2765958 0.7833333
0.14383802 -0.4390845 1.2765958 0.7833333
0.15140845 -0.4390845 1.2765958 0.7833333
0.15897886 -0.4390845 1.2765958 0.7833333
-0.30599642 -0.40562317 1.1999999 0.83333337
-0.3113336 -0.42252415 1.25 0.80000001
-0.30392089 -0.42252415 1.25 0.80000001
-0.32912409 -0.507029 1.5 0.66666669
-0.089974888 -0.23311676 0.68965513 1.45
-0.084909163 -0.23046772 0.68181819 1.4666667
-0.07819996 -0.22286989 0.65934068 1.5166667
-0.072692327 -0.21807697 0.64516127 1.5500001
-0.068133794 -0.21575701 0.63829786 1.5666667
-0.063671231 -0.21348588 0.63157892 1.5833334
-0.058690276 -0.20908411 0.61855668 1.6166667
-0.053910576 -0.20486018 0.60606056 1.6500001
-0.050316539 -0.20486018 0.60606056 1.6500001
-0.045797303 -0.20080356 0.59405941 1.6833333
0.060563378 -0.43151405 1.2765958 0.7833333
0.066714339 -0.42252415 1.25 0.80000001
0.072614253 -0.41390121 1.2244898 0.81666666
0.073615819 -0.34967515 1.0344827 0.9666667
0.078398779 -0.34374848 1.0169492 0.98333329
0.14383802 -0.43151405 1.2765958 0.7833333
0.15140845 -0.43151405 1.2765958 0.7833333
-0.94882613 -0.94882613 2.8571427 0.35000002
-0.068133794 -0.2119718 0.63829786 1.5666667
-0.063671231 -0.20974052 0.63157892 1.5833334
-0.058690276 -0.20541596 0.61855668 1.6166667
-0.053910576 -0.20126615 0.60606056 1.6500001
-0.050316539 -0.20126615 0.60606056 1.6500001
-0.045797303 -0.19728069 0.59405941 1.6833333
-0.041054979 -0.19158991 0.57692307 1.7333333
-0.037275314 -0.18976524 0.5714286 1.7499999
-0.033253253 -0.18621822 0.56074762 1.7833334
-0.029927926 -0.18621822 0.56074762 1.7833334
0.074127048 -0.41511145 1.25 0.80000001
0.079875678 -0.40663978 1.2244898 0.81666666
0.073615819 -0.34354049 1.0344827 0.9666667
0.1362676 -0.42394364 1.2765958 0.7833333
0.14383802 -0.42394364 1.2765958 0.7833333
-0.94882613 -0.9318828 2.8571427 0.35000002
-0.9318828 -0.9318828 2.8571427 0.35000002
-0.29650819 -0.40769875 1.25 0.80000001
-0.15248993 -0.27956486 0.85714287 1.1666666
-0.14740692 -0.27956486 0.85714287 1.1666666
-0.037275314 -0.18637659 0.5714286 1.7499999
-0.033253253 -0.18289289 0.56074762 1.7833334
-0.029927926 -0.18289289 0.56074762 1.7833334
-0.026114481 -0.17953704 0.55045867 1.8166668
-0.022238113 -0.17472804 0.53571427 1.8666667
-0.01856399 -0.17016992 0.52173913 1.9166666
-0.01533663 -0.16870293 0.51724136 1.9333334
-0.012269303 -0.16870293 0.51724136 1.9333334
-0.0092019774 -0.16870293 0.51724136 1.9333334
-0.006030675 -0.16584356 0.50847459 1.9666666
-0.0029899983 -0.1644499 0.50420165 1.9833335
0.10628086 -0.25414988 0.77922082 1.2833333
0.11090177 -0.25414988 0.77922082 1.2833333
0.11552268 -0.25414988 0.77922082 1.2833333
-0.9318828 -0.91493946 2.8571427 0.35000002
-0.91493946 -0.91493946 2.8571427 0.35000002
-0.27369985 -0.3694948 1.1538461 0.86666667
-0.14740692 -0.27448186 0.85714287 1.1666666
-0.01533663 -0.1656356 0.51724136 1.9333334
-0.012269303 -0.1656356 0.51724136 1.9333334
-0.0091233281 -0.1642199 0.51282048 1.9500002
-0.006030675 -0.16282822 0.50847459 1.9666666
-0.0029899983 -0.16145991 0.50420165 1.9833335
0 -0.16145991 0.50420165 1.9833335
0.0029899983 -0.16145991 0.50420165 1.9833335
0.0059799966 -0.16145991 0.50420165 1.9833335
0.0089699952 -0.16145991 0.50420165 1.9833335
0.077349961 -0.4176898 1.3043479 0.76666665
0.10578129 -0.25964502 0.8108108 1.2333333
0.10628086 -0.24952897 0.77922082 1.2833333
-0.27369985 -0.3626523 1.1538461 0.86666667
-0.26685736 -0.3626523 1.1538461 0.86666667
0.079068854 -0.41906491 1.3333334 0.75
0.098415487 -0.40123239 1.2765958 0.7833333
0.10598591 -0.40123239 1.2765958 0.7833333
0.12375994 -0.40995482 1.3043479 0.76666665
0.13149494 -0.40995482 1.3043479 0.76666665
-0.26685736 -0.35580981 1.1538461 0.86666667
-0.2008604 -0.29842114 0.96774197 1.0333333
-0.1779049 -0.28033501 0.90909088 1.1
-0.15757293 -0.26431587 0.85714287 1.1666666
-0.04768585 -0.1907434 0.61855668 1.6166667
-0.0059799966 -0.15547991 0.50420165 1.9833335
0.0089699952 -0.15547991 0.50420165 1.9833335
0.071161963 -0.41115803 1.3333334 0.75
0.077349961 -0.4022198 1.3043479 0.76666665
0.08508496 -0.4022198 1.3043479 0.76666665
0.090845063 -0.39366195 1.2765958 0.7833333
0.094398528 -0.37759411 1.2244898 0.81666666
0.10377786 -0.38546064 1.25 0.80000001
0.12375994 -0.4022198 1.3043479 0.76666665
0.13149494 -0.4022198 1.3043479 0.76666665
0.089753821 -0.16668567 0.54054052 1.85
-0.27507985 -0.15248992 0.50420165 1.9833335
-0.92510551 -0.90731502 3 0.33333334
-0.90731502 -0.90731502 3 0.33333334
-0.16501325 -0.26298988 0.86956525 1.15
-0.15757293 -0.25923288 0.85714287 1.1666666
-0.15248993 -0.25923288 0.85714287 1.1666666
-0.13342868 -0.25203195 0.83333331 1.2
-0.12501426 -0.24522027 0.8108108 1.2333333
-0.12020602 -0.24522027 0.8108108 1.2333333
-0.112361 -0.23876713 0.78947371 1.2666667
-0.10767929 -0.23876713 0.78947371 1.2666667
-0.10035662 -0.23264489 0.76923078 1.3
-0.094582357 -0.2297 0.75949365 1.3166667
0.0059799966 -0.15248992 0.50420165 1.9833335
0.0089699952 -0.15248992 0.50420165 1.9833335
0.069614969 -0.39448482 1.3043479 0.76666665
0.075704224 -0.38609153 1.2765958 0.7833333
0.083274648 -0.38609153 1.2765958 0.7833333
0.087137103 -0.37033269 1.2244898 0.81666666
0.10377786 -0.37804794 1.25 0.80000001
0.12375994 -0.39448482 1.3043479 0.76666665
0.13149494 -0.39448482 1.3043479 0.76666665
0.076518238 -0.19512151 0.64516127 1.5500001
0.086548328 -0.16348018 0.54054052 1.85
0.089753821 -0.16348018 0.54054052 1.85
-0.27806985 -0.14949992 0.50420165 1.9833335
-0.27507985 -0.14949992 0.50420165 1.9833335
-0.27536586 -0.15469992 0.52173913 1.9166666
-0.92510551 -0.88952458 3 0.33333334
-0.90731502 -0.88952458 3 0.33333334
-0.04768585 -0.18340711 0.61855668 1.6166667
-0.04401771 -0.18340711 0.61855668 1.6166667
-0.0030153375 -0.15076688 0.50847459 1.9666666
0.0029899983 -0.14949992 0.50420165 1.9833335
0.0059799966 -0.14949992 0.50420165 1.9833335
0.0089699952 -0.14949992 0.50420165 1.9833335
0.063255079 -0.39534426 1.3333334 0.75
0.068133801 -0.37852111 1.2765958 0.7833333
0.08153975 -0.37063524 1.25 0.80000001
0.083719954 -0.34883314 1.1764705 0.85000002
0.12112676 -0.37852111 1.2765958 0.7833333
0.13149494 -0.3867498 1.3043479 0.76666665
0.077833399 -0.18531762 0.625 1.6
0.080699131 -0.18340711 0.61855668 1.6166667
0.081836253 -0.1779049 0.59999996 1.6666667
0.084548868 -0.17614348 0.59405941 1.6833333
0.087391876 -0.15605693 0.52631575 1.9000001
0.10763994 -0.14949992 0.50420165 1.9833335
-0.28404984 -0.14650992 0.50420165 1.9833335
-0.28105983 -0.14650992 0.50420165 1.9833335
-0.12020602 -0.23560379 0.8108108 1.2333333
0.0029899983 -0.14650992 0.50420165 1.9833335
0.0059799966 -0.14650992 0.50420165 1.9833335
0.075267464 -0.33528233 1.1538461 0.86666667
0.080560714 -0.32895625 1.1320754 0.88333338
0.076518238 -0.18746969 0.64516127 1.5500001
0.077833399 -0.18161127 0.625 1.6
0.080699131 -0.17973897 0.61855668 1.6166667
0.081836253 -0.1743468 0.59999996 1.6666667
-0.28703985 -0.14351992 0.50420165 1.9833335
-0.012707493 -0.15248992 0.53571427 1.8666667
-0.0093634157 -0.14981465 0.52631575 1.9000001
-0.0061346516 -0.14723164 0.51724136 1.9333334
-0.0030153375 -0.1447362 0.50847459 1.9666666
0 -0.1447362 0.50847459 1.9666666
0.0029899983 -0.14351992 0.50420165 1.9833335
0.12601598 -0.35580981 1.25 0.80000001
0.087208286 -0.16743991 0.58823526 1.7
0.088952452 -0.14723164 0.51724136 1.9333334
-0.29002982 -0.14052992 0.50420165 1.9833335
0 -0.14172086 0.50847459 1.9666666
0.0030153375 -0.14172086 0.50847459 1.9666666
-0.30960077 -0.20794082 0.77922082 1.2833333
-0.31311265 -0.2134859 0.80000001 1.25
-0.3083685 -0.2134859 0.80000001 1.25
-0.31194285 -0.21933481 0.82191777 1.2166667
-0.31571856 -0.22551325 0.84507036 1.1833334
-0.31971318 -0.2320499 0.86956525 1.15
-0.33859321 -0.25251019 0.96774197 1.0333333
-0.011959993 -0.13155992 0.50420165 1.9833335
-0.40432933 -0.34772325 1.3636364 0.73333335
-0.28703985 -0.12557992 0.50420165 1.9833335
-0.42050251 -0.33963665 1.3636364 0.73333335
-0.40325114 -0.33208919 1.3333334 0.75
-0.40432933 -0.33963665 1.3636364 0.73333335
-0.39624277 -0.33963665 1.3636364 0.73333335
-0.38815618 -0.33963665 1.3636364 0.73333335
0.075171083 -0.21047904 0.84507036 1.1833334
-0.4366757 -0.33155006 1.3636364 0.73333335
-0.39534426 -0.3241823 1.3333334 0.75
-0.0090460125 -0.12362884 0.50847459 1.9666666
-0.0059799966 -0.12258993 0.50420165 1.9833335
0.075171083 -0.20546763 0.84507036 1.1833334
-0.28404984 -0.11959993 0.50420165 1.9833335
-0.44476229 -0.32346347 1.3636364 0.73333335
-0.4366757 -0.32346347 1.3636364 0.73333335
-0.39534426 -0.31627542 1.3333334 0.75
-0.38006958 -0.32346347 1.3636364 0.73333335
-0.018403955 -0.12269304 0.51724136 1.9333334
-0.015205547 -0.12164438 0.51282048 1.9500002
-0.01206135 -0.1206135 0.50847459 1.9666666
-0.0090460125 -0.1206135 0.50847459 1.9666666
-0.0059799966 -0.11959993 0.50420165 1.9833335
0.075171083 -0.20045622 0.84507036 1.1833334
0.065779962 -0.11959993 0.50420165 1.9833335
-0.28105983 -0.11660993 0.50420165 1.9833335
-0.45284885 -0.31537688 1.3636364 0.73333335
-0.044476226 -0.13342868 0.57692307 1.7333333
-0.04066398 -0.13215794 0.5714286 1.7499999
-0.036578577 -0.12968768 0.56074762 1.7833334
-0.032643098 -0.12730809 0.55045867 1.8166668
-0.029111713 -0.12615076 0.54545456 1.8333333
-0.024969108 -0.1217244 0.52631575 1.9000001
-0.021847969 -0.1217244 0.52631575 1.9000001
-0.018403955 -0.11962571 0.51724136 1.9333334
-0.015205547 -0.11860327 0.51282048 1.9500002
-0.01206135 -0.11759816 0.50847459 1.9666666
0 -0.11660993 0.50420165 1.9833335
0.073111601 -0.19009016 0.82191777 1.2166667
-0.45284885 -0.30729032 1.3636364 0.73333335
-0.35580984 -0.28767604 1.2765958 0.7833333
-0.34823942 -0.28767604 1.2765958 0.7833333
-0.091950856 -0.1519188 0.67415732 1.4833333
-0.086975738 -0.15023082 0.66666669 1.5
-0.081217453 -0.14696492 0.65217388 1.5333334
-0.075704217 -0.143838 0.63829786 1.5666667
-0.071161963 -0.14232393 0.63157892 1.5833334
-0.066026561 -0.13938941 0.61855668 1.6166667
-0.06109865 -0.13657346 0.60606056 1.6500001
-0.05692957 -0.13520773 0.59999996 1.6666667
-0.052324969 -0.13255659 0.58823526 1.7
-0.048362497 -0.13126963 0.58252424 1.7166668
-0.044476226 -0.13000743 0.57692307 1.7333333
-0.04066398 -0.12876928 0.5714286 1.7499999
-0.036578577 -0.12636235 0.56074762 1.7833334
-0.032643098 -0.12404378 0.55045867 1.8166668
-0.029111713 -0.12291612 0.54545456 1.8333333
-0.024969108 -0.11860327 0.52631575 1.9000001
-0.021847969 -0.11860327 0.52631575 1.9000001
-0.018403955 -0.11655839 0.51724136 1.9333334
0.0029899983 -0.11361994 0.50420165 1.9833335
-0.35580984 -0.28010562 1.2765958 0.7833333
-0.3409844 -0.27427006 1.25 0.80000001
-0.3335717 -0.27427006 1.25 0.80000001
-0.21126206 -0.20570254 0.93749994 1.0666667
-0.20253788 -0.20253788 0.92307687 1.0833334
-0.19407807 -0.19946913 0.90909088 1.1
-0.1831374 -0.1936024 0.88235295 1.1333333
-0.17282191 -0.18807091 0.85714287 1.1666666
-0.16537638 -0.185422 0.84507036 1.1833334
-0.1538637 -0.1779049 0.8108108 1.2333333
-0.14513296 -0.17322321 0.78947371 1.2666667
-0.13862722 -0.17097355 0.77922082 1.2833333
-0.13061373 -0.16664509 0.75949365 1.3166667
-0.12453344 -0.16456205 0.75 1.3333334
-0.11715689 -0.16054834 0.73170733 1.3666667
-0.1114585 -0.15861401 0.72289157 1.3833333
-0.10343308 -0.15308097 0.69767439 1.4333334
-0.098154426 -0.15132141 0.68965513 1.45
-0.091950856 -0.14792094 0.67415732 1.4833333
-0.086975738 -0.14627737 0.66666669 1.5
-0.081217453 -0.14309742 0.65217388 1.5333334
-0.075704217 -0.1400528 0.63829786 1.5666667
-0.071161963 -0.13857855 0.63157892 1.5833334
-0.066026561 -0.13572127 0.61855668 1.6166667
-0.06109865 -0.13297942 0.60606056 1.6500001
-0.05692957 -0.13164963 0.59999996 1.6666667
-0.052324969 -0.12906826 0.58823526 1.7
-0.048362497 -0.12781517 0.58252424 1.7166668
-0.0089699952 -0.11062994 0.50420165 1.9833335
0.0059799966 -0.11062994 0.50420165 1.9833335
0.06731537 -0.1779049 0.8108108 1.2333333
-0.34839711 -0.26685736 1.25 0.80000001
-0.3409844 -0.26685736 1.25 0.80000001
-0.3335717 -0.26685736 1.25 0.80000001
-0.326159 -0.26685736 1.25 0.80000001
-0.22026324 -0.20331991 0.95238101 1.05
-0.21126206 -0.20014301 0.93749994 1.0666667
-0.20253788 -0.19706389 0.92307687 1.0833334
-0.19407807 -0.19407807 0.90909088 1.1
-0.1831374 -0.1883699 0.88235295 1.1333333
-0.17282191 -0.18298791 0.85714287 1.1666666
-0.16537638 -0.18041059 0.84507036 1.1833334
-0.1538637 -0.17309667 0.8108108 1.2333333
-0.14513296 -0.16854151 0.78947371 1.2666667
-0.13862722 -0.16635264 0.77922082 1.2833333
-0.13061373 -0.16214117 0.75949365 1.3166667
-0.12453344 -0.16011442 0.75 1.3333334
-0.11715689 -0.15620919 0.73170733 1.3666667
-0.1114585 -0.15432715 0.72289157 1.3833333
-0.10343308 -0.14894365 0.69767439 1.4333334
-0.098154426 -0.14723164 0.68965513 1.45
-0.0059799966 -0.10763994 0.50420165 1.9833335
0.0089699952 -0.10763994 0.50420165 1.9833335
0.056809969 -0.10763994 0.50420165 1.9833335
-0.27208984 -0.10464994 0.50420165 1.9833335
-0.3409844 -0.25944465 1.25 0.80000001
-0.3335717 -0.25944465 1.25 0.80000001
-0.326159 -0.25944465 1.25 0.80000001
-0.32552814 -0.26496479 1.2765958 0.7833333
-0.21126206 -0.19458349 0.93749994 1.0666667
-0.20253788 -0.19158989 0.92307687 1.0833334
-0.19407807 -0.18868703 0.90909088 1.1
-0.1831374 -0.1831374 0.88235295 1.1333333
-0.17282191 -0.17790492 0.85714287 1.1666666
-0.0059799966 -0.10464994 0.50420165 1.9833335
-0.0029899983 -0.10464994 0.50420165 1.9833335
0.050829973 -0.10464994 0.50420165 1.9833335
0.053819969 -0.10464994 0.50420165 1.9833335
0.056809969 -0.10464994 0.50420165 1.9833335
-0.23919986 -0.10165995 0.50420165 1.9833335
-0.44899809 -0.2880365 1.4285713 0.70000005
-0.44052643 -0.2880365 1.4285713 0.70000005
-0.3409844 -0.25203195 1.25 0.80000001
-0.326159 -0.25203195 1.25 0.80000001
-0.32552814 -0.25739434 1.2765958 0.7833333
-0.0030153375 -0.10252148 0.50847459 1.9666666
0 -0.10165995 0.50420165 1.9833335
0.046817079 -0.10611871 0.52631575 1.9000001
0.0482454 -0.10252148 0.50847459 1.9666666
0.050829973 -0.10165995 0.50420165 1.9833335
0.062789962 -0.10165995 0.50420165 1.9833335
0.066337429 -0.10252148 0.50847459 1.9666666
-0.44899809 -0.27956483 1.4285713 0.70000005
-0.44052643 -0.27956483 1.4285713 0.70000005
-0.43205476 -0.27956483 1.4285713 0.70000005
-0.3409844 -0.24461925 1.25 0.80000001
-0.33260486 -0.25525489 1.3043479 0.76666665
-0.32486984 -0.25525489 1.3043479 0.76666665
-0.03618405 -0.09950614 0.50847459 1.9666666
-0.033168714 -0.09950614 0.50847459 1.9666666
0 -0.098669946 0.50420165 1.9833335
0.0029899983 -0.098669946 0.50420165 1.9833335
0.042828958 -0.10871966 0.55555552 1.8000001
0.046123493 -0.10871966 0.55555552 1.8000001
0.046817079 -0.10299757 0.52631575 1.9000001
0.0482454 -0.09950614 0.50847459 1.9666666
0.062789962 -0.098669946 0.50420165 1.9833335
0.065779962 -0.098669946 0.50420165 1.9833335
0.11062994 -0.098669946 0.50420165 1.9833335
0.11660993 -0.098669946 0.50420165 1.9833335
0.11959993 -0.098669946 0.50420165 1.9833335
0.12258993 -0.098669946 0.50420165 1.9833335
-0.43855628 -0.26478869 1.3953488 0.7166667
-0.42050251 -0.25877079 1.3636364 0.73333335
-0.41241592 -0.25877079 1.3636364 0.73333335
-0.32486984 -0.24751988 1.3043479 0.76666665
-0.31713486 -0.24751988 1.3043479 0.76666665
-0.065003715 -0.10947994 0.57692307 1.7333333
-0.061582468 -0.10947994 0.57692307 1.7333333
-0.0095306197 -0.10165995 0.53571427 1.8666667
0.0059799966 -0.095679946 0.50420165 1.9833335
0.038751565 -0.11273182 0.59405941 1.6833333
0.041054979 -0.10947994 0.57692307 1.7333333
0.042828958 -0.10542513 0.55555552 1.8000001
0.046123493 -0.10542513 0.55555552 1.8000001
0.048657749 -0.097315498 0.51282048 1.9500002
0.05126074 -0.0964908 0.50847459 1.9666666
0.06332209 -0.0964908 0.50847459 1.9666666
0.065779962 -0.095679946 0.50420165 1.9833335
0.095679946 -0.095679946 0.50420165 1.9833335
0.10763994 -0.095679946 0.50420165 1.9833335
0.11062994 -0.095679946 0.50420165 1.9833335
0.1206135 -0.0964908 0.50847459 1.9666666
0.12362884 -0.0964908 0.50847459 1.9666666
-0.42050251 -0.2506842 1.3636364 0.73333335
-0.41241592 -0.2506842 1.3636364 0.73333335
-0.40432933 -0.2506842 1.3636364 0.73333335
-0.31713486 -0.23978488 1.3043479 0.76666665
-0.30939984 -0.23978488 1.3043479 0.76666665
-0.14232393 -0.1378763 0.75 1.3333334
-0.1378763 -0.1378763 0.75 1.3333334
0.036307126 -0.11255208 0.6122449 1.6333333
0.038751565 -0.10920896 0.59405941 1.6833333
0.041054979 -0.10605869 0.57692307 1.7333333
0.044052646 -0.10504862 0.5714286 1.7499999
0.06332209 -0.093475461 0.50847459 1.9666666
0.065779962 -0.092689946 0.50420165 1.9833335
0.10763994 -0.092689946 0.50420165 1.9833335
0.12362884 -0.093475461 0.50847459 1.9666666
-0.40325114 -0.23720655 1.3333334 0.75
-0.39534426 -0.23720655 1.3333334 0.75
-0.28591859 -0.19061239 1.0714285 0.93333334
-0.31713486 -0.2320499 1.3043479 0.76666665
-0.30939984 -0.2320499 1.3043479 0.76666665
-0.30836853 -0.23720655 1.3333334 0.75
0.021107363 -0.090460129 0.50847459 1.9666666
0.0241227 -0.090460129 0.50847459 1.9666666
0.032676414 -0.10892137 0.6122449 1.6333333
0.036307126 -0.10892137 0.6122449 1.6333333
0.057781078 -0.091233283 0.51282048 1.9500002
0.060822189 -0.091233283 0.51282048 1.9500002
0.10553681 -0.090460129 0.50847459 1.9666666
0.10855215 -0.090460129 0.50847459 1.9666666
0.11860327 -0.091233283 0.51282048 1.9500002
0.12595038 -0.094462782 0.53097343 1.8833334
0.1322479 -0.094462782 0.53097343 1.8833334
-0.39534426 -0.22929966 1.3333334 0.75
-0.38743737 -0.22929966 1.3333334 0.75
-0.27956486 -0.18425865 1.0714285 0.93333334
-0.31627542 -0.22929966 1.3333334 0.75
-0.30836853 -0.22929966 1.3333334 0.75
-0.30046165 -0.22929966 1.3333334 0.75
-0.050829977 -0.098271288 0.5714286 1.7499999
0.01533663 -0.088952452 0.51724136 1.9333334
0.018092025 -0.08744479 0.50847459 1.9666666
0.021107363 -0.08744479 0.50847459 1.9666666
0.058757581 -0.094664991 0.55045867 1.8166668
0.062021889 -0.094664991 0.55045867 1.8166668
0.082598709 -0.092129327 0.53571427 1.8666667
0.08744479 -0.08744479 0.50847459 1.9666666
0.089699946 -0.086709954 0.50420165 1.9833335
0.092689946 -0.086709954 0.50420165 1.9833335
0.10828994 -0.089725956 0.52173913 1.9166666
0.11138394 -0.089725956 0.52173913 1.9166666
0.13057239 -0.094664991 0.55045867 1.8166668
0.13837048 -0.095541522 0.55555552 1.8000001
-0.39534426 -0.22139278 1.3333334 0.75
-0.38743737 -0.22139278 1.3333334 0.75
-0.37953049 -0.22139278 1.3333334 0.75
-0.32486984 -0.2165799 1.3043479 0.76666665
-0.30836853 -0.22139278 1.3333334 0.75
-0.30046165 -0.22139278 1.3333334 0.75
-0.29255474 -0.22139278 1.3333334 0.75
0.0096164811 -0.089753821 0.54054052 1.85
0.012595038 -0.088165261 0.53097343 1.8833334
0.01533663 -0.085885122 0.51724136 1.9333334
0.018092025 -0.08442945 0.50847459 1.9666666
0.056007098 -0.092246987 0.55555552 1.8000001
0.059301633 -0.092246987 0.55555552 1.8000001
0.076482482 -0.093109109 0.56074762 1.7833334
0.077631235 -0.090569772 0.54545456 1.8333333
0.079421833 -0.088952452 0.53571427 1.8666667
0.081867747 -0.088165261 0.53097343 1.8833334
0.083537959 -0.086631954 0.52173913 1.9166666
0.085151061 -0.085151061 0.51282048 1.9500002
0.08744479 -0.08442945 0.50847459 1.9666666
0.089699946 -0.083719954 0.50420165 1.9833335
0.11119056 -0.088952452 0.53571427 1.8666667
0.11436744 -0.088952452 0.53571427 1.8666667
0.13057239 -0.091400683 0.55045867 1.8166668
0.14650992 -0.097673275 0.58823526 1.7
-0.38743737 -0.2134859 1.3333334 0.75
-0.37953049 -0.2134859 1.3333334 0.75
-0.37162361 -0.2134859 1.3333334 0.75
-0.30046165 -0.2134859 1.3333334 0.75
-0.29255474 -0.2134859 1.3333334 0.75
-0.29111713 -0.21833785 1.3636364 0.73333335
-0.15109731 -0.13160089 0.82191777 1.2166667
0.0033253252 -0.08978378 0.56074762 1.7833334
0.0065286201 -0.088136367 0.55045867 1.8166668
0.0096164811 -0.086548328 0.54054052 1.85
0.012595038 -0.085016504 0.53097343 1.8833334
0.032676414 -0.098029234 0.6122449 1.6333333
0.037453663 -0.10112489 0.63157892 1.5833334
0.055271424 -0.093270533 0.58252424 1.7166668
0.058161221 -0.092373699 0.57692307 1.7333333
0.065286197 -0.088136367 0.55045867 1.8166668
0.073980257 -0.09511748 0.59405941 1.6833333
0.081867747 -0.085016504 0.53097343 1.8833334
0.083537959 -0.083537959 0.52173913 1.9166666
0.1197117 -0.08978378 0.56074762 1.7833334
0.16451421 -0.10329963 0.64516127 1.5500001
-0.37953049 -0.20557901 1.3333334 0.75
-0.37162361 -0.20557901 1.3333334 0.75
-0.36371672 -0.20557901 1.3333334 0.75
-0.31627542 -0.20557901 1.3333334 0.75
-0.29920372 -0.21025126 1.3636364 0.73333335
-0.29111713 -0.21025126 1.3636364 0.73333335
-0.15109731 -0.12672678 0.82191777 1.2166667
0 -0.086458452 0.56074762 1.7833334
0.0033253252 -0.086458452 0.56074762 1.7833334
0.0065286201 -0.08487206 0.55045867 1.8166668
0.056778163 -0.098415479 0.63829786 1.5666667
0.057504613 -0.093444996 0.60606056 1.6500001
0.079421833 -0.082598709 0.53571427 1.8666667
0.12453343 -0.092510551 0.59999996 1.6666667
0.12809153 -0.092510551 0.59999996 1.6666667
0.17190813 -0.10394444 0.67415732 1.4833333
-0.37162361 -0.19767213 1.3333334 0.75
-0.36371672 -0.19767213 1.3333334 0.75
-0.35580984 -0.19767213 1.3333334 0.75
-0.30836853 -0.19767213 1.3333334 0.75
-0.29111713 -0.20216466 1.3636364 0.73333335
-0.28303054 -0.20216466 1.3636364 0.73333335
-0.040432934 -0.20216466 1.3636364 0.73333335
-0.032346349 -0.20216466 1.3636364 0.73333335
-0.024259761 -0.20216466 1.3636364 0.73333335
-0.0079068849 -0.19767213 1.3333334 0.75
0.054144971 -0.096687444 0.65217388 1.5333334
0.056778163 -0.094630271 0.63829786 1.5666667
0.12579134 -0.089850962 0.60606056 1.6500001
0.12938538 -0.089850962 0.60606056 1.6500001
0.17190813 -0.099946581 0.67415732 1.4833333
0.20551084 -0.076683149 0.51724136 1.9333334
0.20857817 -0.076683149 0.51724136 1.9333334
-0.36371672 -0.18976524 1.3333334 0.75
-0.35580984 -0.18976524 1.3333334 0.75
-0.35580984 -0.19407809 1.3636364 0.73333335
-0.2978873 -0.19859152 1.3953488 0.7166667
-0.28961262 -0.19859152 1.3953488 0.7166667
-0.27494395 -0.19407809 1.3636364 0.73333335
-0.040432934 -0.19407809 1.3636364 0.73333335
-0.032346349 -0.19407809 1.3636364 0.73333335
-0.024259761 -0.19407809 1.3636364 0.73333335
-0.016173175 -0.19407809 1.3636364 0.73333335
0.049647879 -0.099295758 0.69767439 1.4333334
0.051394753 -0.094882622 0.66666669 1.5
0.054739974 -0.093839958 0.65934068 1.5166667
0.13108782 -0.089888796 0.63157892 1.5833334
0.16743991 -0.10046394 0.70588231 1.4166667
-0.35580984 -0.18185836 1.3333334 0.75
-0.34790295 -0.18185836 1.3333334 0.75
-0.28961262 -0.19031687 1.3953488 0.7166667
-0.28133798 -0.19031687 1.3953488 0.7166667
-0.27306333 -0.19031687 1.3953488 0.7166667
-0.032346349 -0.1859915 1.3636364 0.73333335
-0.024259761 -0.1859915 1.3636364 0.73333335
-0.016173175 -0.1859915 1.3636364 0.73333335
-0.0080865873 -0.1859915 1.3636364 0.73333335
0.047730587 -0.099800318 0.73170733 1.3666667
0.049647879 -0.095158435 0.69767439 1.4333334
0.14151527 -0.092995748 0.68181819 1.4666667
0.16743991 -0.096277945 0.70588231 1.4166667
0.22424987 -0.068769962 0.50420165 1.9833335
-0.35580984 -0.17790492 1.3636364 0.73333335
-0.34772325 -0.17790492 1.3636364 0.73333335
-0.28133798 -0.18204223 1.3953488 0.7166667
-0.27306333 -0.18204223 1.3953488 0.7166667
-0.13215792 -0.22365187 1.7142856 0.58333337
-0.12199193 -0.22365187 1.7142856 0.58333337
-0.039534427 -0.17395148 1.3333334 0.75
-0.0088952454 -0.1956954 1.5 0.66666669
0.0088952454 -0.1956954 1.5 0.66666669
0.043927137 -0.0966397 0.74074072 1.35
0.047730587 -0.095461175 0.73170733 1.3666667
0.14825408 -0.093188278 0.71428567 1.4000001
-0.34772325 -0.16981833 1.3636364 0.73333335
-0.33963665 -0.16981833 1.3636364 0.73333335
-0.27306333 -0.17376758 1.3953488 0.7166667
-0.26478869 -0.17376758 1.3953488 0.7166667
-0.12199193 -0.21348588 1.7142856 0.58333337
-0.11182594 -0.21348588 1.7142856 0.58333337
-0.0088952454 -0.18680015 1.5 0.66666669
0.0088952454 -0.18680015 1.5 0.66666669
0.038465925 -0.10097305 0.8108108 1.2333333
0.041588161 -0.097039044 0.77922082 1.2833333
0.045039218 -0.094582357 0.75949365 1.3166667
0.10741428 -0.070490621 0.56603771 1.7666668
0.14825408 -0.088952452 0.71428567 1.4000001
0.22424987 -0.062789962 0.50420165 1.9833335
-0.33963665 -0.16173173 1.3636364 0.73333335
-0.33155006 -0.16173173 1.3636364 0.73333335
-0.27109319 -0.16943324 1.4285713 0.70000005
-0.26262152 -0.16943324 1.4285713 0.70000005
-0.11182594 -0.20331989 1.7142856 0.58333337
-0.10165995 -0.20331989 1.7142856 0.58333337
0.030497985 -0.10165995 0.85714287 1.1666666
0.035079841 -0.10022811 0.84507036 1.1833334
0.038465925 -0.096164815 0.8108108 1.2333333
0.10308508 -0.066506505 0.56074762 1.7833334
-0.33963665 -0.15364516 1.3636364 0.73333335
-0.33155006 -0.15364516 1.3636364 0.73333335
-0.32346347 -0.15364516 1.3636364 0.73333335
-0.27109319 -0.16096157 1.4285713 0.70000005
-0.26262152 -0.16096157 1.4285713 0.70000005
-0.26034865 -0.16488749 1.4634147 0.68333334
-0.078487463 -0.099417448 0.88235295 1.1333333
-0.12199193 -0.19315389 1.7142856 0.58333337
-0.10165995 -0.19315389 1.7142856 0.58333337
0.0088952454 -0.16900967 1.5 0.66666669
0.026552971 -0.10090129 0.89552236 1.1166667
0.030939985 -0.097976618 0.86956525 1.15
0.035079841 -0.095216706 0.84507036 1.1833334
0.083719954 -0.056809969 0.50420165 1.9833335
0.086709954 -0.056809969 0.50420165 1.9833335
0.19599694 -0.057291415 0.50847459 1.9666666
0.21826987 -0.056809969 0.50420165 1.9833335
0.22125988 -0.056809969 0.50420165 1.9833335
-0.33155006 -0.14555857 1.3636364 0.73333335
-0.32346347 -0.14555857 1.3636364 0.73333335
-0.27770522 -0.15620919 1.4634147 0.68333334
-0.26902694 -0.15620919 1.4634147 0.68333334
-0.26034865 -0.15620919 1.4634147 0.68333334
-0.090280101 -0.095590696 0.89552236 1.1166667
-0.083719961 -0.09418495 0.88235295 1.1333333
-0.078487463 -0.09418495 0.88235295 1.1333333
-0.12199193 -0.1829879 1.7142856 0.58333337
-0.10165995 -0.1829879 1.7142856 0.58333337
-0.0088952454 -0.16011442 1.5 0.66666669
0.0086782882 -0.15620919 1.4634147 0.68333334
0.022238113 -0.1000715 0.93749994 1.0666667
0.026955288 -0.097039036 0.90909088 1.1
0.045039218 -0.081070587 0.75949365 1.3166667
0.082109958 -0.082109958 0.76923078 1.3
0.085574508 -0.081070587 0.75949365 1.3166667
0.090078436 -0.081070587 0.75949365 1.3166667
0.091122031 -0.078104593 0.73170733 1.3666667
0.077739954 -0.053819969 0.50420165 1.9833335
0.080729954 -0.053819969 0.50420165 1.9833335
0.086709954 -0.053819969 0.50420165 1.9833335
0.32022884 -0.16011442 1.5 0.66666669
0.4558813 -0.20014301 1.8749999 0.53333336
0.46700037 -0.20014301 1.8749999 0.53333336
0.19599694 -0.054276075 0.50847459 1.9666666
-0.33926052 -0.14066899 1.3953488 0.7166667
-0.33098587 -0.14066899 1.3953488 0.7166667
-0.32271123 -0.14066899 1.3953488 0.7166667
-0.31443658 -0.14066899 1.3953488 0.7166667
-0.2757526 -0.15121917 1.5 0.66666669
-0.10621189 -0.090280101 0.89552236 1.1166667
-0.10090129 -0.090280101 0.89552236 1.1166667
-0.095590696 -0.090280101 0.89552236 1.1166667
-0.090280101 -0.090280101 0.89552236 1.1166667
-0.083719961 -0.088952459 0.88235295 1.1333333
-0.10674295 -0.15121917 1.5 0.66666669
-0.088952452 -0.15121917 1.5 0.66666669
0.054047059 -0.076566666 0.75949365 1.3166667
0.06086221 -0.079589039 0.78947371 1.2666667
0.074907333 -0.079589039 0.78947371 1.2666667
0.07855542 -0.07855542 0.77922082 1.2833333
0.082109958 -0.077548295 0.76923078 1.3
0.077739954 -0.050829973 0.50420165 1.9833335
0.080729954 -0.050829973 0.50420165 1.9833335
0.086709954 -0.050829973 0.50420165 1.9833335
0.2950618 -0.1475309 1.4634147 0.68333334
0.30374008 -0.1475309 1.4634147 0.68333334
0.32022884 -0.15121917 1.5 0.66666669
0.32912409 -0.15121917 1.5 0.66666669
0.43364319 -0.18902396 1.8749999 0.53333336
0.44476226 -0.18902396 1.8749999 0.53333336
0.4781194 -0.18902396 1.8749999 0.53333336
-0.32271123 -0.13239434 1.3953488 0.7166667
-0.31443658 -0.13239434 1.3953488 0.7166667
-0.12214366 -0.084969506 0.89552236 1.1166667
-0.11683307 -0.084969506 0.89552236 1.1166667
-0.11321221 -0.086256921 0.90909088 1.1
-0.10090129 -0.084969506 0.89552236 1.1166667
-0.086782888 -0.13885261 1.4634147 0.68333334
0 -0.1116266 1.1764705 0.85000002
0.0068424963 -0.10947994 1.1538461 0.86666667
0.013178142 -0.10542513 1.1111112 0.89999998
0.019407809 -0.10350832 1.0909091 0.91666663
0.06554392 -0.074907333 0.78947371 1.2666667
0.070225626 -0.074907333 0.78947371 1.2666667
0.074907333 -0.074907333 0.78947371 1.2666667
0.07538344 -0.0482454 0.50847459 1.9666666
0.078398779 -0.0482454 0.50847459 1.9666666
0.083719954 -0.047839973 0.50420165 1.9833335
0.086709954 -0.047839973 0.50420165 1.9833335
0.27109319 -0.13554659 1.4285713 0.70000005
0.28638351 -0.13885261 1.4634147 0.68333334
0.2880365 -0.13554659 1.4285713 0.70000005
0.30374008 -0.13885261 1.4634147 0.68333334
0.31241837 -0.13885261 1.4634147 0.68333334
-0.31443658 -0.1241197 1.3953488 0.7166667
-0.30616194 -0.1241197 1.3953488 0.7166667
-0.2978873 -0.1241197 1.3953488 0.7166667
-0.099295758 -0.1241197 1.3953488 0.7166667
-0.091021113 -0.1241197 1.3953488 0.7166667
-0.084716618 -0.12707493 1.4285713 0.70000005
-0.078104593 -0.13017432 1.4634147 0.68333334
-0.033098586 -0.1241197 1.3953488 0.7166667
0 -0.10464994 1.1764705 0.85000002
0.0067133927 -0.10070089 1.1320754 0.88333338
0.078028463 -0.046817079 0.52631575 1.9000001
0.080443956 -0.046409976 0.52173913 1.9166666
0.08442945 -0.045230065 0.50847459 1.9666666
0.27109319 -0.12707493 1.4285713 0.70000005
0.37453666 -0.14045125 1.5789474 0.63333333
0.76244956 -0.25414985 2.8571427 0.35000002
-0.30616194 -0.11584505 1.3953488 0.7166667
-0.2978873 -0.11584505 1.3953488 0.7166667
-0.28961262 -0.11584505 1.3953488 0.7166667
-0.20232321 -0.097673275 1.1764705 0.85000002
-0.1883699 -0.097673275 1.1764705 0.85000002
-0.084716618 -0.11860327 1.4285713 0.70000005
-0.078104593 -0.12149604 1.4634147 0.68333334
-0.069426306 -0.12149604 1.4634147 0.68333334
-0.060748018 -0.12149604 1.4634147 0.68333334
-0.050829973 -0.11860327 1.4285713 0.70000005
-0.033098586 -0.11584505 1.3953488 0.7166667
-0.024823939 -0.11584505 1.3953488 0.7166667
-0.016173175 -0.11321221 1.3636364 0.73333335
0.013426785 -0.093987495 1.1320754 0.88333338
0.078718983 -0.04408263 0.53097343 1.8833334
0.085885122 -0.042942561 0.51724136 1.9333334
0.28961262 -0.11584505 1.3953488 0.7166667
0.3134515 -0.11860327 1.4285713 0.70000005
0.32192314 -0.11860327 1.4285713 0.70000005
0.34691459 -0.12453344 1.5 0.66666669
0.37453666 -0.13108784 1.5789474 0.63333333
0.38390008 -0.13108784 1.5789474 0.63333333
0.7793929 -0.23720653 2.8571427 0.35000002
0.79633623 -0.23720653 2.8571427 0.35000002
-0.2978873 -0.10757041 1.3953488 0.7166667
-0.28961262 -0.10757041 1.3953488 0.7166667
-0.22510417 -0.094398528 1.2244898 0.81666666
-0.21348588 -0.092510551 1.1999999 0.83333337
-0.20636968 -0.092510551 1.1999999 0.83333337
-0.18153563 -0.094398528 1.2244898 0.81666666
-0.17427421 -0.094398528 1.2244898 0.81666666
-0.16367251 -0.092510551 1.1999999 0.83333337
-0.15348658 -0.090696618 1.1764705 0.85000002
-0.060748018 -0.11281775 1.4634147 0.68333334
-0.050829973 -0.11013161 1.4285713 0.70000005
-0.042358309 -0.11013161 1.4285713 0.70000005
-0.033098586 -0.10757041 1.3953488 0.7166667
-0.024823939 -0.10757041 1.3953488 0.7166667
-0.016549293 -0.10757041 1.3953488 0.7166667
0.079068847 -0.042828958 0.55555552 1.8000001
0.080137342 -0.041671418 0.54054052 1.85
0.085016504 -0.040933874 0.53097343 1.8833334
0.28133798 -0.10757041 1.3953488 0.7166667
0.38390008 -0.12172442 1.5789474 0.63333333
0.39326349 -0.12172442 1.5789474 0.63333333
0.7793929 -0.22026321 2.8571427 0.35000002
0.79633623 -0.22026321 2.8571427 0.35000002
-0.28133798 -0.099295758 1.3953488 0.7166667
-0.27306333 -0.099295758 1.3953488 0.7166667
-0.18879706 -0.087137103 1.2244898 0.81666666
-0.18153563 -0.087137103 1.2244898 0.81666666
-0.17427421 -0.087137103 1.2244898 0.81666666
-0.16367251 -0.085394353 1.1999999 0.83333337
-0.19407809 -0.19407809 2.7272727 0.36666667
0.08132796 -0.04066398 0.5714286 1.7499999
0.086548328 -0.038465925 0.54054052 1.85
0.31019318 -0.10947995 1.5384616 0.64999998
0.31931651 -0.10947995 1.5384616 0.64999998
0.36517325 -0.112361 1.5789474 0.63333333
0.40389222 -0.11539778 1.6216216 0.61666667
0.7793929 -0.20331989 2.8571427 0.35000002
0.79633623 -0.20331989 2.8571427 0.35000002
0.81327957 -0.20331989 2.8571427 0.35000002
-0.19273032 -0.08153975 1.25 0.80000001
-0.18153563 -0.079875678 1.2244898 0.81666666
-0.17427421 -0.079875678 1.2244898 0.81666666
-0.19407809 -0.17790492 2.7272727 0.36666667
-0.17790492 -0.17790492 2.7272727 0.36666667
0.052890647 -0.052890647 0.8108108 1.2333333
0.057698891 -0.052890647 0.8108108 1.2333333
0.078688711 -0.037633732 0.57692307 1.7333333
0.082109958 -0.037633732 0.57692307 1.7333333
0.091493957 -0.037275314 0.5714286 1.7499999
0.23996475 -0.091021113 1.3953488 0.7166667
0.31019318 -0.10035662 1.5384616 0.64999998
0.31931651 -0.10035662 1.5384616 0.64999998
0.32843983 -0.10035662 1.5384616 0.64999998
0.7793929 -0.18637656 2.8571427 0.35000002
0.79633623 -0.18637656 2.8571427 0.35000002
0.81327957 -0.18637656 2.8571427 0.35000002
-0.19407809 -0.16173173 2.7272727 0.36666667
-0.17790492 -0.16173173 2.7272727 0.36666667
0.081025995 -0.035228696 0.59405941 1.6833333
0.083719954 -0.034883313 0.58823526 1.7
0.23996475 -0.082746468 1.3953488 0.7166667
0.29194653 -0.091233291 1.5384616 0.64999998
0.30106986 -0.091233291 1.5384616 0.64999998
0.32843983 -0.091233291 1.5384616 0.64999998
0.34644642 -0.093634166 1.5789474 0.63333333
0.79633623 -0.16943324 2.8571427 0.35000002
0.81327957 -0.16943324 2.8571427 0.35000002
0.078278154 -0.032022882 0.59999996 1.6666667
0.081836253 -0.032022882 0.59999996 1.6666667
0.088952452 -0.030791234 0.57692307 1.7333333
0.23996475 -0.074471824 1.3953488 0.7166667
0.2482394 -0.074471824 1.3953488 0.7166667
0.25651404 -0.074471824 1.3953488 0.7166667
0.35580984 -0.084270753 1.5789474 0.63333333
0.36517325 -0.084270753 1.5789474 0.63333333
0.079875678 -0.029045699 0.6122449 1.6333333
0.08350639 -0.029045699 0.6122449 1.6333333
0.090696618 -0.027906651 0.58823526 1.7
0.23996475 -0.066197172 1.3953488 0.7166667
0.2482394 -0.066197172 1.3953488 0.7166667
0.25651404 -0.066197172 1.3953488 0.7166667
0.35580984 -0.074907333 1.5789474 0.63333333
0.36517325 -0.074907333 1.5789474 0.63333333
0.76244956 -0.13554659 2.8571427 0.35000002
0.082398057 -0.026217565 0.63157892 1.5833334
0.086143427 -0.026217565 0.63157892 1.5833334
0.099473707 -0.026781384 0.64516127 1.5500001
0.57607299 -0.11860327 2.8571427 0.35000002
0.59301633 -0.11860327 2.8571427 0.35000002
0.080344148 -0.022955472 0.64516127 1.5500001
0.084170066 -0.022955472 0.64516127 1.5500001
0.59301633 -0.10165995 2.8571427 0.35000002
0.60995966 -0.10165995 2.8571427 0.35000002
0.083022296 -0.019767214 0.66666669 1.5
0.086975738 -0.019767214 0.66666669 1.5
0.095647797 -0.019129559 0.64516127 1.5500001
0.10165995 -0.01954999 0.65934068 1.5166667
0.080865867 -0.016173175 0.68181819 1.4666667
0.084909163 -0.016173175 0.68181819 1.4666667
0.088952459 -0.016173175 0.68181819 1.4666667
0.098836064 -0.01581377 0.66666669 1.5
0.082746468 -0.01241197 0.69767439 1.4333334
0.086883791 -0.01241197 0.69767439 1.4333334
0.08346156 -0.0087854275 0.74074072 1.35
0.085737303 -0.0085737305 0.72289157 1.3833333
0.088952452 -0.0084716622 0.71428567 1.4000001
0.10809412 -0.0090078432 0.75949365 1.3166667
0.084504835 -0.0044476227 0.75 1.3333334
0.11090177 -0.0046209069 0.77922082 1.2833333
0.08539436 0 0.80000001 1.25
0.088952459 0 0.78947371 1.2666667
0.10628086 0 0.77922082 1.2833333
0.112361 0 0.78947371 1.2666667
0.086548336 0.0048082406 0.8108108 1.2333333
0.10767929 0.0046817083 0.78947371 1.2666667
0.112361 0.0046817083 0.78947371 1.2666667
0.081740096 0.0096164811 0.8108108 1.2333333
0.086548336 0.0096164811 0.8108108 1.2333333
0.10767929 0.0093634166 0.78947371 1.2666667
0.112361 0.0093634166 0.78947371 1.2666667
-0.11141519 0.010782115 0.60606056 1.6500001
0.085193895 0.015034216 0.84507036 1.1833334
0.095216706 0.015034216 0.84507036 1.1833334
0.10911501 0.014232393 0.80000001 1.25
0.085193895 0.020045621 0.84507036 1.1833334
0.095216706 0.020045621 0.84507036 1.1833334
0.15846992 0.011959993 0.50420165 1.9833335
-0.10394444 0.019989315 0.67415732 1.4833333
-0.26233438 0.018092025 0.50847459 1.9666666
-0.25931904 0.018092025 0.50847459 1.9666666
0.011959993 0.01793999 0.50420165 1.9833335
0.014949991 0.01793999 0.50420165 1.9833335
0.01793999 0.01793999 0.50420165 1.9833335
0.023919987 0.01793999 0.50420165 1.9833335
0.14293215 0.018246656 0.51282048 1.9500002
0.14597325 0.018246656 0.51282048 1.9500002
-0.26217565 0.021847969 0.52631575 1.9000001
-0.26368049 0.022238113 0.53571427 1.8666667
-0.10112489 0.026217565 0.63157892 1.5833334
0.011959993 0.020929988 0.50420165 1.9833335
0.014949991 0.020929988 0.50420165 1.9833335
0.01793999 0.020929988 0.50420165 1.9833335
-0.26685736 0.026356282 0.55555552 1.8000001
-0.2685357 0.026853571 0.56603771 1.7666668
-0.10112489 0.029962931 0.63157892 1.5833334
0.15547991 0.023919987 0.50420165 1.9833335
-0.10487026 0.033708297 0.63157892 1.5833334
-0.10112489 0.033708297 0.63157892 1.5833334
0.0059799966 0.026909985 0.50420165 1.9833335
0.10081279 0.053371474 1 1
-0.12255672 0.039534427 0.66666669 1.5
-0.087905951 0.041859977 0.70588231 1.4166667
-0.083719954 0.041859977 0.70588231 1.4166667
-0.067558825 0.045039218 0.75949365 1.3166667
0.0059799966 0.029899983 0.50420165 1.9833335
0.096012183 0.056477752 0.95238101 1.05
0.15248992 0.029899983 0.50420165 1.9833335
-0.087905951 0.046045974 0.70588231 1.4166667
-0.084716618 0.046594139 0.71428567 1.4000001
-0.045910943 0.042085033 0.64516127 1.5500001
-0.042085033 0.042085033 0.64516127 1.5500001
0.0029899983 0.032889981 0.50420165 1.9833335
0.094882622 0.0652318 1 1
0.14369242 0.075267464 1.1538461 0.86666667
0.15053493 0.075267464 1.1538461 0.86666667
-0.45197463 0.11539778 1.6216216 0.61666667
-0.45464587 0.11860327 1.6666666 0.60000002
-0.45746973 0.12199193 1.7142856 0.58333337
-0.075609587 0.053371474 0.75 1.3333334
0.13684992 0.082109958 1.1538461 0.86666667
0.14369242 0.082109958 1.1538461 0.86666667
-0.449444 0.12172442 1.5789474 0.63333333
-0.45197463 0.12501426 1.6216216 0.61666667
